-2.061564 -1.106313 4.378302
2.454274 1.494403 8.170483
-0.375981 -1.145525 6.542159
-0.620333 -1.420043 7.513239
-2.177525 -2.180208 5.218648
-0.651129 -2.037490 7.213323
-2.099003 0.050004 3.849664
-3.105585 0.296493 8.646182
0.709234 1.035900 6.984250
-1.403813 1.667200 6.745749
-2.841345 0.134709 4.148230
-0.662988 2.304290 4.737958
1.474876 0.579359 4.822200
-2.720121 0.090571 5.582838
0.780986 0.628207 5.210173
0.581611 0.012284 4.547739
-0.487006 -0.525666 4.474008
0.565437 -0.006568 6.842657
0.386843 -1.074987 3.418796
-0.082541 -1.783422 7.391889
2.710250 0.743663 6.253558
1.322606 0.237174 7.419607
-0.634617 0.171880 4.027993
1.212814 0.756946 5.569652
-1.668979 2.135867 3.620238
0.085521 -1.191639 4.240253
-0.648250 -1.389981 7.505458
0.464563 0.252321 3.708223
-0.531311 -0.988198 6.358651
-1.708715 -0.082730 7.087459
-1.398969 0.211585 4.675658
-2.401776 -0.507144 7.664405
-0.567788 -0.869156 6.024034
-0.286261 -0.749502 2.752743
-0.429091 -0.215599 3.119394
-0.183509 -0.123673 1.581615
0.154104 0.067476 2.581792
-0.583666 -0.531333 4.212108
0.343887 0.293018 2.912214
0.731368 -0.085917 4.126846
0.700253 0.966975 5.000081
-0.191801 -0.044212 2.762704
1.176607 0.715906 6.082267
-2.519824 0.373916 4.440741
-0.560182 -0.935501 6.020367
-0.660892 -0.625999 4.670494
2.594449 -1.222909 3.045794
-1.182808 0.975746 4.301508
0.687803 0.019054 5.357185
-0.268704 -0.336349 3.071024
-2.724553 0.302070 8.561778
-2.833956 0.153582 5.592678
-2.432736 0.071925 3.642449
-0.857265 0.243590 5.505276
0.604336 0.575137 4.859700
2.489571 -1.223253 4.828364
-0.264597 -0.261399 2.611831
-1.075252 -1.092914 5.303472
0.174502 -0.055282 1.367384
-0.718534 -2.043113 4.309547
1.480668 0.687191 6.272188
-1.695750 -1.393769 8.021106
-0.423214 -1.872742 8.571171
-0.522595 -1.025341 6.317579
-0.803385 0.126188 5.086149
1.940229 -0.669405 7.225511
1.500964 0.241093 7.477817
-0.417051 -1.138864 4.630756
0.187248 -0.040916 2.618715
-3.171673 0.136156 3.268764
0.970874 1.197299 6.876585
0.753993 0.238402 8.122408
-0.972134 -0.705653 5.760099
-2.442745 -0.944936 4.192765
-0.439579 -0.583040 4.490486
-1.036737 0.253296 6.036303
-0.120695 0.078252 0.769891
0.281895 -0.051598 3.209207
2.064463 -1.869821 4.093576
-1.448329 0.338973 7.077209
-0.462489 -0.831918 5.559222
2.404934 -2.210909 4.170629
1.612309 -0.761350 4.977640
1.345150 -0.150063 6.145748
-1.888787 0.240227 7.543131
2.812033 -0.652066 4.262298
0.341218 -1.027142 3.481646
2.637999 1.509063 4.074007
-2.671308 -1.406905 4.300783
1.385375 -1.385412 4.079472
0.291247 0.196556 3.288225
1.509821 -1.069419 4.578468
-2.938126 0.423381 4.300393
0.173849 2.039405 3.427751
-1.927166 -0.523501 4.090783
2.845330 1.264785 6.878846
-2.330844 -1.712401 3.477859
0.268824 0.190046 2.320909
-0.223493 -1.756125 3.849128
-1.688078 -2.128518 2.760433
-0.612959 -0.508606 4.019273
-0.851001 2.992803 4.603282
0.487190 2.088395 5.928085
-3.126747 -1.523532 6.581161
0.604900 1.132383 7.869322
-0.914129 0.178729 5.314780
1.629275 0.732816 7.214331
-2.477217 -0.574808 7.764273
-0.579581 -0.919909 6.120108
0.834482 -0.336517 3.863437
0.041436 -1.351399 6.037768
1.396273 -2.097714 5.117005
0.357144 0.379832 3.556963
-0.552399 -0.630906 4.635825
0.593146 -0.030055 4.556756
0.874480 1.807356 8.565350
-0.808800 2.209720 6.107358
-2.561205 0.077847 3.590712
0.428032 -0.524892 7.535580
0.071073 0.688408 3.754330
-0.389084 -0.307066 3.694546
-3.323949 -0.887280 4.356688
-0.499407 -0.953247 6.299083
-0.698257 1.002675 5.146322
1.578433 0.830567 4.645037
-1.311733 0.670888 5.414654
1.141254 -0.308230 4.861906
0.654553 -0.334504 4.552812
0.098811 1.765339 8.323319
-0.301134 1.980257 6.324133
0.600995 -0.075152 4.208025
-1.532571 0.275424 7.103097
-0.724403 -2.219428 8.503404
-0.347319 -0.413381 3.771912
0.987727 1.129197 6.724945
0.050531 1.437822 5.946833
-0.981191 0.556662 7.352931
0.762684 1.146877 5.133319
1.014719 0.720751 6.048417
-0.496039 -1.467018 7.220807
-1.096920 0.084270 5.591558
1.018292 -0.115465 5.340281
-0.840844 2.807953 4.632529
0.404971 -1.506887 4.341945
0.321215 -0.062483 2.508764
2.656863 1.525110 5.501662
-0.514402 -0.674790 4.752951
-2.080311 -0.640703 6.045923
2.462039 -0.019864 4.129377
2.429901 0.798455 7.534254
-2.055226 -2.551440 4.977123
-0.075582 -0.098095 2.206435
-2.261845 -1.691089 3.487939
-0.010784 1.432576 4.713714
-0.730665 -0.539257 4.752753
1.257934 0.665720 6.778275
-2.429054 0.185474 4.371128
0.636792 -0.323569 6.694408
3.218237 -0.530449 3.935737
-1.210190 -1.949601 6.550524
1.395633 0.322025 5.841829
0.852988 0.942823 6.533143
1.373729 -0.509037 6.475238
-0.020496 0.107603 1.492248
-0.845294 0.716830 8.318219
0.503510 -0.103161 4.674867
-0.529738 0.167339 3.909796
1.447864 -0.615032 3.791108
0.051424 0.108140 2.106089
0.402306 0.096187 3.189957
-0.557825 -0.416478 4.045761
0.905223 -1.672331 5.282231
-0.340204 -0.240584 2.614985
0.910083 -1.632648 4.892581
0.584347 -0.108579 5.350907
0.930601 -1.506169 3.483388
-0.004432 0.132326 0.791058
-2.772923 0.143565 5.595863
1.427544 -1.622731 6.545987
-0.981840 1.825922 5.126851
-0.424812 -0.265635 3.475166
1.075280 0.654759 6.217221
0.628959 0.045804 7.538653
0.993474 0.676833 5.743404
0.357764 -1.599159 7.586998
1.030985 -0.153177 6.235210
0.341985 1.571898 3.023011
0.475683 1.171787 7.104048
3.154795 1.820063 3.490054
0.425287 1.694138 7.282592
-0.715996 -1.775936 8.312055
1.203314 1.628035 5.314855
0.026145 0.129091 1.639873
0.059821 -0.110995 1.286926
-0.459626 -0.532832 4.051714
-0.444670 -1.903988 8.569188
-1.341230 0.209830 9.415408
-0.765910 0.487727 4.116334
-0.562729 -1.399107 7.430477
3.379505 -0.578311 3.730254
-0.814012 0.543977 6.000703
-1.532065 0.357892 7.396718
0.586071 1.119766 7.547607
-0.602644 -1.071028 2.503017
-0.995440 0.179819 5.813631
-2.436605 0.143947 8.942756
-0.442723 -0.731269 5.255376
-0.844885 -2.624960 3.697137
1.370162 -0.035562 4.269921
-1.031398 0.599323 7.573746
-0.675774 -1.496490 7.791978
-1.043894 0.377516 5.179951
1.648341 -1.627153 4.443471
0.676690 0.865953 5.034964
-0.560342 -0.820545 5.860905
-2.015727 -0.008846 7.423158
1.749068 -0.445952 4.769684
1.389564 0.264271 7.419776
3.644015 0.661521 5.070883
-1.816051 1.010632 5.391174
-1.292092 2.343067 5.000019
2.125516 1.179617 4.405769
-0.884912 0.483565 7.148671
-0.064070 1.428144 6.519389
0.223061 0.036262 2.593975
-1.034281 -0.781841 5.915805
1.520146 -0.452175 4.815665
1.647625 1.080374 7.309313
-0.379034 -0.345616 3.857698
1.732796 -2.136701 4.051833
-0.372839 2.240746 4.817800
-0.122290 0.080059 0.651950
0.705865 1.025079 6.895517
1.459229 -0.603069 4.908831
0.737296 0.812870 6.180575
1.357224 0.274816 5.877171
-0.169343 -0.001164 1.046532
-0.534109 -0.556126 4.264017
1.321122 -2.133447 4.915190
0.706824 1.003453 5.092715
0.612659 -0.020505 4.735450
0.715588 0.143582 8.252426
-0.539448 -0.929951 5.977706
2.014813 0.570886 4.968968
-0.859905 -1.379559 3.399821
0.508122 1.868224 4.265175
0.482241 -0.083262 5.306513
-1.236266 0.409826 8.639853
-0.377480 -1.603422 7.072791
0.600326 0.511759 4.395719
1.396571 0.633407 8.559282
0.422306 0.383774 3.693704
1.602294 1.082588 7.271116
1.020046 0.704499 5.997697
-1.054132 -0.765625 6.007219
0.383215 1.243724 3.161821
-0.986577 -1.562823 6.551991
-0.433746 -0.529370 4.073501
0.758468 -0.382035 4.601412
-0.125630 -1.164461 4.061135
1.139741 0.306308 3.596992
0.025568 1.740425 3.500925
-2.274142 -1.224629 6.304112
-3.233619 -1.489484 4.284454
-0.878987 0.249553 7.293875
-0.328626 -1.225549 6.700231
-0.068622 0.054041 1.790358
-0.940870 -2.674585 3.556601
-2.162642 0.563055 2.896220
3.074711 1.039794 7.731164
-0.455970 0.017574 2.613752
0.079998 -0.024328 2.076872
0.449591 0.224693 3.555469
0.348771 0.070372 2.550933
1.842397 0.808959 7.390017
-0.415770 -0.596582 4.542879
-0.405951 0.030476 2.595061
2.464304 -1.764111 4.073117
0.707709 1.077956 7.078270
-0.637282 -0.636587 4.830236
-0.403307 0.337890 2.914839
0.421036 0.065422 3.731139
-0.840804 1.965027 5.247716
-1.472913 0.356096 4.720454
1.741579 1.485884 3.780023
-0.439676 -0.734167 4.901105
0.109432 -0.071689 1.849367
0.379860 -0.046797 2.849210
-1.321544 -0.540377 4.974464
-0.127201 -0.064386 0.609273
0.249940 -1.526137 6.134339
-0.024406 0.132513 0.380802
-0.257139 -1.612291 4.830566
0.773991 -0.207065 7.676334
-0.568593 -0.908962 6.341245
-1.798287 1.263726 5.503527
1.832058 0.778525 7.341469
1.122382 -0.315629 5.457796
0.717913 -0.059526 4.732549
0.767808 -0.109157 4.607228
1.786148 -1.134645 4.369263
-0.929466 -1.415819 3.342417
0.882566 -0.046755 5.080117
1.565745 -0.969069 5.924194
-1.051734 -2.064687 2.851781
1.405216 -0.059307 8.942515
-1.339384 0.279270 6.902079
-0.596564 -0.586068 4.802645
-1.890415 1.438998 4.230306
2.182786 2.464184 5.381490
0.111525 -0.025192 2.237024
0.674439 -0.208739 7.478901
-0.329135 -0.050577 2.117398
0.563614 1.181153 8.040341
0.278638 0.916369 5.487750
0.523236 0.042899 4.092768
-0.868352 0.483121 7.162636
-0.320946 -0.251719 3.172858
-3.309812 0.317166 5.467614
0.324400 -0.793370 7.629518
-0.627394 -2.231175 7.375367
-0.312551 1.410331 5.474143
0.632495 0.711048 5.753945
3.375276 -0.591878 3.858250
-0.539485 0.174917 3.994756
0.537269 -0.030674 5.890510
-1.215250 -0.983503 6.558779
0.579691 1.093889 7.559189
-1.124951 0.390170 6.305810
0.498824 -0.048609 3.507202
0.901642 -1.367448 4.931373
1.720907 -0.681562 6.981572
-1.135639 0.202761 6.170635
0.731364 -0.107153 3.025997
0.619737 0.060264 7.313861
0.178019 0.023681 0.123130
0.750896 0.597470 5.051629
0.368843 -0.064623 2.895147
-0.162043 -0.110895 1.416122
2.178296 1.410735 8.110702
0.298254 -0.047067 3.398386
-0.675687 -1.043617 3.499718
-2.158975 -0.495005 4.990208
-0.228653 -1.168589 5.818173
0.623155 -0.098554 6.231592
0.478175 1.122614 7.020786
-1.204592 0.283195 6.248561
-2.159791 -0.608505 6.056445
-0.348261 -0.732986 4.872979
1.891818 2.280304 5.415820
0.941525 -1.370625 3.415848
1.643110 -0.797107 4.917278
-0.211040 -1.816525 3.873271
-1.557262 1.017391 8.887642
0.417691 -0.986106 3.480291
-1.363170 1.173844 4.226707
0.954087 -0.173759 5.279404
-0.800873 -0.698826 5.164037
-2.606990 -0.764534 3.958008
1.179910 0.763545 6.380253
-1.701947 -0.883087 6.093264
-0.415043 1.478340 5.473663
0.016952 0.140814 0.072700
-0.458021 0.135463 3.926604
0.948846 0.616611 4.597019
0.610048 0.009124 4.477997
1.599313 -0.816776 3.776894
-0.568228 -1.471058 8.932196
1.831862 -0.216155 7.452524
-0.417658 -0.916401 5.530888
-1.301642 -0.559038 4.942747
0.427109 1.069174 6.080134
1.047011 0.991200 3.895849
0.753963 -0.099950 4.554122
0.573591 1.080679 6.971981
-0.944676 0.247579 7.636265
-0.734814 1.258069 6.321790
0.596332 -0.046109 6.835675
0.462149 -0.082358 4.495859
1.890416 -1.017457 3.554029
1.496988 0.827014 4.645635
-0.239453 -0.779714 5.027160
-0.279459 -0.255909 3.351682
0.961663 -0.065047 5.297095
-1.344197 0.304131 6.877081
0.898826 -0.049165 5.009605
0.922505 0.126124 7.228147
-0.309080 -1.458960 9.540872
1.084204 1.123608 6.771639
-0.595536 0.856709 6.866995
-0.575142 -0.735114 5.211256
-0.686595 -0.510075 4.684858
-0.288468 -0.242439 2.686230
-0.745360 -2.117290 7.878434
-0.229713 -0.388837 2.720528
0.763116 0.643724 5.396161
-0.610178 0.028928 3.882299
1.041205 0.728784 6.041777
-1.703531 0.252895 4.635186
-0.312540 -1.882717 8.799720
0.584766 2.073633 4.187133
-0.116232 -2.171498 4.859412
0.282415 0.113417 2.028061
-0.574759 -0.893327 6.184224
-0.853268 -0.620325 5.245739
-2.214223 -2.782198 4.787568
-1.346294 0.265310 6.753388
-0.965991 -0.520441 4.748868
0.072546 -2.019029 7.432781
0.412470 0.887953 5.424203
1.029424 -0.347825 2.952840
0.689055 -0.314725 8.621325
0.821803 0.331307 9.448710
-2.628944 -0.777790 3.921361
-0.794955 0.902953 8.399614
-1.341149 0.304754 4.727206
0.897611 0.884063 3.897537
-1.095179 0.264161 4.638181
-0.133237 -2.788536 4.682995
0.728873 0.887539 6.408376
1.094410 -1.169022 7.468511
-0.873671 0.468168 7.084240
-2.070792 1.578448 4.139326
1.630080 0.906448 4.709458
0.608697 0.104858 3.494629
3.058830 0.670091 7.569120
-2.562081 -1.448551 6.354542
0.744074 -0.569848 7.946728
-0.699532 -2.070283 8.472536
1.108183 0.682314 6.101052
0.537694 -0.106648 4.596507
-0.834611 2.684972 4.651701
0.422723 0.171207 2.868291
0.898989 -0.830458 2.504426
-1.819928 -0.475266 4.064202
1.887520 -0.236042 3.090986
0.353573 -1.711582 6.838131
0.616480 -0.075951 5.262320
-0.922525 1.962581 7.342540
-1.657439 -1.342926 7.957796
-0.965784 0.211853 5.844457
-0.482113 -0.927323 6.353194
0.011830 -0.034006 1.870102
0.054636 -1.063469 5.211919
-0.429892 -0.030695 2.788463
0.505983 0.009990 4.840380
-2.569475 -0.678094 4.809711
-0.971646 -0.774833 5.728159
0.631690 -1.793367 4.267462
0.658743 -0.284718 8.271205
-0.349416 -1.427280 6.945577
0.755642 0.524797 5.174772
-0.499265 1.599279 5.360303
1.374657 0.510247 3.596377
-0.052730 -0.148744 1.629374
0.414582 -0.254618 2.556820
1.906948 0.195707 7.566328
1.019764 0.415873 7.748115
0.776685 -0.054513 4.723505
2.097762 -1.265892 4.163960
0.620867 -0.039492 4.325821
-0.306908 -1.307538 6.803637
2.347791 -0.230813 4.191019
0.512382 -0.163340 3.684076
-1.841110 -1.372709 8.255472
-0.478878 0.022493 3.668720
2.459811 0.149611 3.798757
-0.155732 1.607203 4.817668
-0.669812 0.065772 2.666121
2.009628 -1.213011 3.505116
0.555511 0.512312 4.865128
0.553682 1.276170 8.442697
0.515917 -0.096805 4.265787
-1.043904 1.578954 6.833746
-0.398138 1.757488 6.658916
-0.779757 0.757747 8.545457
1.152320 0.737498 6.143155
-3.057178 -1.487617 6.566587
-0.274415 0.077199 2.561679
-0.833569 1.948330 5.255303
1.647214 -1.785407 4.327974
-0.236680 -1.400262 5.823690
-1.990670 0.295351 7.653256
-1.695654 0.375374 7.792904
-1.889557 -1.382620 8.286050
-1.034248 -0.393621 3.045552
-0.103536 -1.202648 5.847545
0.771523 1.278366 5.063120
-1.098004 0.150336 5.492810
-0.668797 0.113236 4.852473
0.697916 1.103725 7.218499
-1.396546 1.558378 4.041251
0.892169 -2.161684 4.804245
0.761856 0.620683 5.145850
-1.843307 -0.009806 3.878430
-0.368521 -0.438710 4.048004
0.714563 0.024267 6.888239
-2.413549 -0.960619 4.192274
0.579704 -0.119832 6.273067
0.854817 1.029952 6.590296
1.727477 0.725984 3.333531
0.745434 1.187771 5.047594
1.029823 -0.998778 2.409886
-0.126423 -0.058250 0.762200
-0.736608 0.185968 5.046087
1.400233 -0.421085 4.907601
0.599950 -0.057253 4.599086
-1.193482 -0.819091 6.709966
-0.897452 0.248541 6.052898
1.139311 0.660370 6.295149
0.405739 2.052606 7.291885
-1.539918 -1.961127 6.289815
-1.809777 0.396153 8.071864
-1.411947 0.279280 4.715688
0.172311 -2.652480 4.849878
-0.889378 0.277080 7.427835
1.699859 0.717456 6.450618
1.526049 0.908683 5.678185
0.101718 0.121684 2.464279
1.613632 -0.386759 6.391123
-1.155471 -0.735421 4.277821
-1.770906 -0.253620 5.979402
-0.259323 1.790817 4.825901
0.599202 -0.253091 3.762208
-0.539067 -1.087301 6.502927
0.012400 -1.134132 4.192635
-0.357020 -1.273084 6.765542
0.553456 -0.134243 4.364295
-0.323796 0.105748 3.287791
0.382066 -1.082874 3.471601
-2.697662 0.306428 8.552866
-3.259401 -0.795586 5.948123
1.113577 1.937200 7.626160
-0.194833 -1.918086 5.734564
-1.294701 -0.880070 7.434772
0.823155 -0.130003 4.777025
-3.343346 -0.582839 5.725753
0.701974 0.771128 5.766210
-1.849431 1.383024 4.241916
-2.677866 0.706913 2.472313
-0.605018 0.168422 4.593522
-1.027130 -1.526638 6.524204
2.226112 -0.883017 8.855121
-2.544732 1.293132 5.102415
-0.371029 -0.268031 2.792125
-0.572846 -0.494623 4.618478
0.031705 -0.089088 1.709915
0.585407 -0.380223 7.437401
-0.499583 -0.387979 3.581830
0.593072 -0.094681 4.941544
0.915815 0.520096 4.520894
-0.886129 0.239724 6.634098
-0.569302 1.658393 5.329050
0.136535 0.783059 3.816460
0.993683 1.423519 5.270986
-0.511117 2.178217 4.802487
0.240133 -0.030440 3.132284
-0.188524 -1.739911 3.898265
0.285913 -0.839787 3.486714
0.843063 0.959901 6.585396
0.280610 -2.798233 4.845268
-0.551889 -0.546178 4.617494
-2.433957 0.710023 4.982494
-2.108338 -2.077276 8.282125
-1.629362 -0.965570 8.285702
-0.911839 -0.722600 5.464083
-2.372304 0.101090 5.728212
-0.842022 0.396182 6.350789
0.405168 2.054554 5.908458
-1.890945 -0.974213 4.367287
-1.582560 0.410588 4.816639
0.634477 -0.145452 6.877292
0.772363 2.465899 5.578408
1.130482 1.149427 6.787941
0.215314 -0.047614 2.058000
-0.891961 -0.701375 5.360305
1.311670 -1.368903 6.493653
-0.427314 -0.226556 2.991465
-1.762391 -1.738213 8.114946
-2.808960 0.393102 4.350675
-1.421088 0.305821 6.934993
0.160302 0.018506 1.038219
-2.490640 -0.304784 7.467120
-1.060345 -0.889630 6.215294
2.335775 0.157524 7.668688
-0.184706 -0.099728 2.615035
1.497097 -1.638937 3.986355
-1.097516 1.340649 8.817406
-1.213183 -1.981149 6.571049
-2.152275 -0.922035 4.296602
0.886618 1.077809 6.702963
-2.069522 -1.070602 4.320235
-2.282966 0.176378 8.694919
1.340516 -0.991315 9.375159
1.107594 -0.833438 4.646239
-0.935735 0.499166 7.110754
-0.616371 -1.126605 2.469070
-0.218389 -0.247670 2.523196
0.941409 0.814362 3.929199
0.071501 0.746251 3.813869
0.119298 -0.081881 1.106313
1.232688 1.139190 3.912471
0.714150 1.038385 6.947781
0.374554 -1.335056 5.396236
-0.809189 -1.227423 3.507831
0.269050 1.057225 4.595931
0.796090 -0.307599 8.949886
-0.786390 -0.647613 5.401066
0.405504 -1.571772 5.453829
-0.730785 0.152876 4.613192
-0.649722 -1.907747 7.094261
0.800961 -0.687836 8.101272
-1.607699 -0.866239 6.108500
0.454719 1.083999 3.169919
2.148733 1.235669 4.399026
0.175062 -0.009770 2.799910
-3.420997 0.413681 4.143606
-0.401064 -0.045965 3.301323
1.075514 -0.741723 4.630777
-1.281704 0.418754 6.441274
0.891505 0.565248 9.260825
-0.335602 -0.099110 2.669615
-0.131043 -0.965771 4.042649
2.378469 -0.916932 3.055803
1.454828 0.336302 7.423989
0.697938 -0.155852 4.382567
0.577620 0.028163 4.107044
-0.579468 -1.122001 6.759556
2.757553 1.515555 8.285279
-2.136318 0.255604 8.464604
-2.713363 -0.575414 5.895610
0.658292 -0.212382 4.349976
1.529989 -2.343616 5.026590
0.473214 0.220803 3.282363
1.615338 0.010581 6.935171
0.654103 -0.202221 7.645764
0.204622 1.023625 5.472974
-1.179003 -0.733927 4.270535
0.698536 -1.894940 4.271874
-0.954031 -0.795583 5.794225
-1.080415 -1.021290 5.260835
-0.930053 0.182542 5.365783
0.598718 -0.085076 4.751153
0.229267 1.189398 4.580330
-0.311295 -0.087571 2.117604
1.117127 -0.170670 8.311928
0.618878 -0.433259 7.678719
-1.369736 -0.179388 3.971989
-1.595001 0.422752 3.252415
-0.380956 -0.021272 2.453759
1.167304 0.692471 2.477279
-2.007165 -0.545066 2.507907
-0.390451 -0.254617 3.472893
0.757277 -0.665252 2.567467
0.388031 1.379162 3.116670
2.687502 -1.931084 3.816786
0.615580 -0.036305 4.982397
-1.658751 1.107991 3.322154
-0.445414 0.037825 3.215015
-0.173179 -0.938183 5.140291
-0.790304 -0.716008 5.316061
1.695439 0.188928 7.526968
0.908766 -0.431392 3.923005
-0.815968 1.427716 5.250993
-0.160092 -1.710941 7.407237
-0.702424 0.171600 4.343151
2.563360 0.408862 6.263998
-0.769994 -0.599373 4.707239
-1.625538 -1.571326 7.949602
1.526800 -0.894993 5.898002
0.102612 -0.017830 1.473232
-1.003972 0.235056 4.615120
0.788586 1.287521 7.753183
-2.099955 0.288565 8.372473
-0.765821 0.136240 2.621580
-0.131867 0.085220 0.328705
-0.539402 -0.543289 4.676083
0.680239 0.832691 6.404895
-3.270784 1.610403 4.548373
-1.795412 0.401233 8.110383
-0.909224 -0.754080 5.869849
-0.799179 2.448565 4.718027
-0.507236 0.573416 2.969642
2.154642 0.729183 7.271918
-0.317059 -0.201361 3.220740
0.336591 -1.384311 5.390664
1.936442 -1.377390 4.639065
1.935783 -1.665428 5.709695
1.359535 0.718275 7.116896
-1.566840 -1.469726 7.837414
0.667825 0.019233 7.254354
2.971960 1.713094 3.729939
-0.947234 0.327389 7.743057
-0.347366 1.959694 4.804607
-0.786827 1.134923 6.299327
-1.079293 0.387654 8.345824
-1.687497 1.286193 4.278253
-1.114074 2.094856 5.105132
-0.098554 -2.786772 4.676472
0.532553 -1.920162 5.486567
-1.021221 0.306493 3.437176
-1.299844 0.226877 4.614006
-0.594599 -0.475718 4.540908
-2.170049 -0.202776 7.533835
0.609270 1.338873 2.986731
0.307660 0.337341 3.229944
-0.847220 0.555091 7.538659
0.610089 -0.235035 7.816149
1.456608 0.876000 5.687075
0.606179 0.471101 3.737544
1.097597 0.671975 6.080656
0.717042 0.506481 5.017155
0.413645 1.062340 3.196843
-0.542877 -0.426548 4.066077
-0.764698 -0.701892 5.301626
0.110484 0.052275 2.434845
-0.133693 -0.180563 2.273894
-1.050507 -0.565566 3.163645
-0.590755 -0.452927 4.403767
-1.454761 -0.976786 4.231128
-0.505296 -0.575196 4.847228
-1.442121 -1.143650 7.357030
1.142815 -0.216289 5.929504
0.625259 -0.236207 4.492806
-0.135855 -1.927716 4.850386
-1.636207 0.216883 7.170826
1.328102 0.879812 6.560900
0.172720 1.625540 8.174057
0.626869 0.403576 4.260752
-1.377002 1.428930 4.144705
1.090308 -0.151001 3.130224
-0.350823 -0.176222 2.454070
-0.467324 -1.222319 4.718252
0.670370 -0.224308 6.609130
0.645197 -0.028898 6.668594
1.344329 -0.559355 6.477277
-1.206615 -1.972068 6.538679
1.349641 1.614509 3.694651
0.490860 1.582872 4.409334
-0.635421 -1.568370 9.057735
0.542643 1.142076 7.415266
1.153234 1.032683 3.937853
0.815816 1.122931 5.174728
1.790985 0.171757 3.804914
0.521267 0.004740 3.399451
-0.735515 -1.216061 2.363122
0.443971 2.358548 5.908506
0.705045 0.147338 8.270195
0.835731 2.162475 4.723976
-0.925096 0.395540 5.157339
-0.477735 1.227017 7.095776
-3.518673 -0.060628 5.169636
-0.532508 0.025100 3.328528
2.311851 0.563258 5.017117
-1.792207 1.228942 3.250972
-1.628087 -1.145195 6.806622
-1.504778 -0.971956 8.222807
0.642961 0.819487 6.051590
0.619751 -1.971062 2.840369
1.735252 0.989871 4.616579
-0.854172 0.261265 5.131377
-1.177349 0.297822 6.351265
-0.121885 -2.721177 4.708616
-0.439376 -0.717959 5.161404
-1.396138 -1.195629 7.359071
-0.855240 2.731502 4.644795
2.333488 -2.051261 5.459061
-0.779684 -0.616790 5.314592
-0.901569 -0.455216 3.149278
1.937569 -1.381902 4.683895
1.876528 0.780224 7.413017
-2.276104 1.694839 4.028995
1.676741 0.874661 4.666968
0.778783 1.743733 5.022485
-0.170454 -1.425871 5.852122
-1.557826 0.390424 4.847382
-0.556356 -0.474017 4.096926
0.338471 0.184613 2.595321
-2.534214 -0.596242 8.136205
-0.710698 0.801262 5.127323
-1.519022 -1.117900 8.540479
0.478574 0.354384 3.469647
0.736478 0.970073 6.827844
1.341841 1.507671 3.788500
-1.682242 -0.884788 6.139747
0.558679 -0.081576 6.473708
-1.302297 0.251791 6.665259
1.650544 2.313997 3.071804
2.535653 -0.605080 4.484376
-0.931967 0.242411 7.595796
2.596327 0.393082 6.253028
0.146355 0.084771 0.322245
0.452822 0.377562 4.242929
-2.059475 -1.902215 8.430900
0.332031 0.080384 3.379343
-0.530338 -0.999880 6.208754
0.588713 -0.091075 4.363144
2.901268 -0.603306 4.196212
-2.273113 1.175486 5.226457
2.339226 0.453992 6.340869
-1.267211 0.231557 6.491590
1.294128 -0.684796 5.810849
1.194185 -0.506670 3.901314
0.601061 0.602583 5.186264
0.774226 -1.884838 4.296213
-0.597090 0.755269 6.786156
1.281871 -1.020734 6.491786
-1.901727 0.476391 4.976368
-1.517077 0.376718 9.358884
1.555729 1.384606 6.877501
0.484368 -0.064771 5.507313
-0.782693 1.306585 5.191953
-1.172981 0.925360 4.343406
3.198451 -1.202758 4.537238
1.424119 0.565617 3.551176
-0.504649 -0.910370 5.936315
-1.013729 0.481171 3.497107
2.103638 0.211312 3.836103
-1.653387 0.274937 4.656249
-0.794421 0.259319 6.218481
0.289338 0.308623 3.026020
-1.148027 -0.776814 4.188617
0.566821 0.730087 5.237519
-1.323637 0.415395 6.433295
0.473005 1.457615 6.108366
0.491014 -0.093910 5.453024
-1.264776 -0.867415 7.038829
-0.113179 -0.105070 0.193929
-0.603514 0.193952 4.302072
-0.642961 -0.625703 4.939526
0.684872 -0.182918 7.595145
-0.630859 2.402629 6.938894
-1.081151 0.392085 6.344574
-2.238863 0.106465 2.525588
-0.189696 1.574427 6.541398
1.529302 -0.681374 4.911991
-0.344593 -0.271578 2.721636
0.041857 -0.598395 3.404028
0.827920 0.699713 3.920260
-1.748874 1.578807 8.976602
1.023633 0.390034 7.722956
-0.790262 0.126136 4.862420
1.786238 1.237826 7.603522
-1.462045 0.295043 7.009223
0.764597 1.655737 5.062710
1.230127 -0.518660 3.890562
-0.501473 -0.377127 3.628342
-1.406682 0.297905 7.097114
0.364328 1.106306 6.135479
-2.682841 -1.079511 8.892487
-0.661223 2.102746 7.481434
-1.021204 -0.890037 5.244885
0.695297 -0.581679 2.618710
-0.808903 0.158065 4.871301
0.880817 -1.398062 3.451186
1.224932 -1.114756 4.104735
0.151841 0.609381 3.683378
2.423040 -1.731729 4.121687
-0.481628 -1.593329 7.762301
-1.462614 0.296384 7.098188
1.309536 -1.355483 6.526039
-0.474868 -0.688140 5.274369
0.643527 -0.131950 6.473660
-0.189380 -0.905225 5.143776
0.451948 0.038950 3.053557
2.204156 -1.117882 3.392769
-1.743648 1.219960 5.459175
1.840759 -1.252379 4.767907
0.818452 -0.334523 3.885782
-0.225779 -2.186446 3.595647
-1.481304 0.423265 9.156090
1.211440 0.717542 6.695409
0.715367 -0.463660 4.553909
3.090996 -0.826224 4.138383
0.983813 -0.215133 5.328693
-1.307465 -0.500414 4.967862
0.540192 0.020052 4.706205
0.091986 0.693588 3.830115
1.399762 -0.219095 6.315091
1.446156 1.904631 3.433503
-0.556959 -0.918667 6.183045
0.168712 0.042182 0.284950
-1.827153 -0.810346 7.945181
0.139616 -0.076789 1.275845
-1.087247 1.426793 6.609364
0.488499 1.585757 4.459286
2.310399 1.964051 3.190775
-0.777794 -0.574617 5.098572
-1.165891 -1.152534 5.310494
-0.073677 1.469126 6.497268
-1.310028 -0.534031 4.975437
-2.300995 -0.971346 4.225560
1.058801 0.721386 6.181394
-1.141132 -0.453786 3.014853
-0.370181 -0.433330 3.400592
-0.278309 -1.131486 5.803077
-0.010597 -0.814124 2.810502
0.151196 -0.086358 1.616865
-0.490062 -0.649906 3.537919
-1.308651 -1.826001 3.047299
-0.640326 0.207871 4.687947
0.561037 -0.106752 4.990847
1.593624 -0.645487 4.926321
-3.305726 -0.198186 3.433189
-1.073196 -0.798656 6.103643
0.010829 1.320958 7.554011
-0.483940 0.053209 2.605908
1.481507 0.302474 5.915873
0.107241 0.155669 2.419483
0.647020 -1.152616 3.447043
1.109357 -0.152029 5.816505
-3.571768 1.125950 5.027159
2.300973 0.617542 6.137201
-1.757753 -0.066356 7.057513
0.552252 0.387581 4.435793
-3.407317 -1.510641 4.251326
-2.271721 -0.556087 6.023673
2.719364 1.018032 6.710337
-0.805940 -1.184192 3.472006
-0.998080 0.366916 6.255758
-0.837973 0.218156 4.504326
2.579373 1.056823 6.728570
-1.783956 0.471632 3.193900
0.070744 -0.018929 1.609007
-2.150768 -1.133703 4.377296
0.608187 -2.245823 5.496711
0.517725 -1.439019 5.404367
-1.979851 1.576333 5.495433
2.191933 -1.321918 4.039092
1.036961 -0.813295 4.106280
-0.892720 0.537924 7.317298
2.348014 1.347493 4.274703
-1.863999 0.978123 5.378197
-0.783272 0.365782 6.291513
-0.398531 -0.349163 3.449255
2.844623 0.057264 3.903285
-0.751510 0.223550 3.337807
0.180680 1.270515 6.365297
1.279104 1.343842 3.886713
-1.185180 0.975840 4.296283
-0.079526 1.199998 5.505763
-3.353646 0.230606 3.762099
-0.019593 -0.115399 1.899052
-0.234541 -0.177899 3.019192
1.769324 -1.067141 5.991204
0.544313 0.344656 4.206397
-1.033562 0.274376 5.922813
0.708539 -2.466817 5.497489
0.583711 0.011175 4.547885
0.268744 1.350938 8.281626
2.743701 1.900206 3.153110
1.588257 0.827031 4.655723
0.522573 1.723290 4.366353
0.267333 0.166553 2.215782
-0.406166 -0.548905 3.854713
-1.733866 1.180731 5.508025
0.412550 1.275922 8.328666
-0.201638 -1.645221 4.896010
-2.439880 0.139937 8.934610
0.616548 1.136609 7.882905
0.629388 1.416547 8.826346
0.380444 0.716189 3.242707
0.302193 0.302205 2.981892
-0.236458 1.864761 6.273910
-1.286876 -1.340084 5.368497
1.923725 0.852493 3.236962
0.165983 -0.048796 2.184745
0.523066 0.750375 5.259402
-0.305787 1.848598 4.794974
0.367973 0.550108 3.132267
1.259009 0.708829 6.157386
-0.357117 -0.079047 2.409033
-3.050931 -1.775446 7.198871
-0.136683 -0.444271 3.240418
1.641956 -0.408883 4.852027
-2.557737 -1.371748 4.275191
-1.844520 -0.485653 4.061311
-1.884528 0.050736 5.734825
0.495260 -1.739751 6.199992
-3.318028 -0.343483 4.931126
-2.322096 -1.484422 8.854453
1.414527 -1.325138 4.096962
1.092404 0.562528 4.689287
0.705595 -0.030044 5.299672
-1.848985 -1.372532 3.996426
-0.749271 2.029542 6.186244
1.969043 1.280620 7.912447
-1.491812 0.225535 4.645383
1.704725 1.139727 7.532175
1.794685 -0.485403 4.833545
0.643310 0.832085 6.120591
-1.026105 -1.598470 6.575974
1.064271 -0.112371 5.673031
3.051384 -0.470796 4.008590
0.011662 -0.027672 1.846870
-1.366034 -0.816930 4.350892
-1.180153 0.773505 8.220595
1.731999 -0.133163 4.324116
0.012148 -0.574888 3.342900
2.500199 1.695537 3.427002
-0.084573 -2.541474 4.741481
1.919891 0.017610 7.175204
1.862972 0.788791 3.287848
1.059976 0.986250 3.895343
-1.743977 0.460146 3.162329
1.253050 0.882290 6.566698
-2.726781 -0.721362 4.731756
-1.818558 0.905360 7.144282
2.072890 -0.781918 3.365288
-0.195617 -2.702452 3.085150
-2.237967 -1.178004 4.364544
-0.487775 -0.911266 4.639109
-1.944136 -2.044743 5.242679
-0.340253 -0.444531 3.770184
0.479959 1.221559 7.574163
-0.776031 0.211285 4.814546
0.343141 0.058674 2.337943
0.292945 1.714453 5.903714
0.749870 2.463731 5.590603
0.823674 0.240779 8.778768
2.701751 -0.386828 4.154834
2.570786 1.158127 7.959894
1.637035 -0.661354 3.714438
-1.816303 0.406213 8.109234
2.228536 -0.811575 8.688555
1.134697 0.534598 7.912586
2.447161 -1.456975 3.822014
1.648020 -1.710464 4.365301
-1.028040 0.016086 2.706158
-0.911080 0.327668 6.065674
-2.281443 1.317689 7.624634
0.647347 -0.284610 7.986256
0.769082 0.899214 4.984464
-0.022324 -0.111937 1.213575
0.721001 0.721720 4.865865
-1.258312 0.306425 6.499147
0.240752 -1.166141 7.642869
1.120192 0.698329 6.117519
1.761861 -0.933227 3.681633
0.593018 0.028746 7.026081
-1.009702 0.350998 5.197070
-0.503250 0.081344 3.227744
0.252180 -0.026534 2.066259
-0.403587 0.130390 3.637995
-0.800928 2.173908 5.160741
-1.693237 -0.355964 4.079125
1.839864 -0.984337 3.591950
2.424859 0.356656 3.859506
1.519163 0.982899 7.066247
-0.536894 -1.356564 4.681958
0.176918 -0.023062 0.573416
-0.547465 -1.645780 8.075059
0.234209 -1.514027 6.105953
-2.799557 -1.634541 4.142059
-0.542692 -0.429470 3.918737
-0.949207 0.356559 7.855255
1.100913 -0.152971 3.103885
-0.586899 0.176889 4.568744
0.632512 1.056697 6.831383
-1.353036 0.289024 4.688699
0.763432 0.533166 5.146934
-1.791501 -0.421699 4.114905
1.356140 -0.197307 6.156229
0.972003 0.914316 3.978219
2.181386 1.243722 4.410164
-0.123194 -2.182722 5.615752
-3.471527 -0.334638 4.892126
-2.934326 0.100767 3.458534
0.969430 1.330103 7.143790
-1.452455 -1.159647 7.416863
1.353573 0.820396 5.648146
0.898944 -1.349802 4.863007
0.937999 0.146446 7.272777
-0.694195 0.874898 5.153327
-0.943115 0.254408 7.436033
0.213426 0.081984 2.875998
-0.979372 0.365391 5.109638
-0.852108 0.254497 6.973489
-0.499456 -0.652711 5.184952
1.233853 -0.217164 5.900572
0.357519 -0.193012 2.575439
-0.070537 0.104772 1.140817
2.691875 -0.257446 8.633920
-2.974665 0.911975 5.068964
-0.543073 1.884409 7.360424
-0.995392 1.263042 7.364060
-1.075464 1.324062 8.734108
-1.385568 -0.925551 7.790943
-0.644025 -1.554164 6.822532
1.240304 -0.488935 6.287562
-0.533630 0.138020 3.603437
-0.193807 -1.215518 5.836833
2.343268 0.685648 8.715829
-1.013119 1.414522 7.386220
0.843368 -0.483780 4.591106
-0.605148 0.178106 4.631728
-1.301390 -0.859747 7.096327
-0.902244 0.534509 7.505002
2.086525 0.509992 6.354295
0.500295 -0.101675 4.638757
0.057021 0.125132 1.999242
2.480022 -1.456083 3.784719
-0.914433 0.316602 7.687163
-0.266211 0.014406 2.124851
1.410691 0.707017 6.907054
0.897055 0.602198 5.432674
-0.248587 -1.329471 5.816997
0.912310 -1.022045 4.836701
0.536576 -0.076539 3.718391
0.755629 -0.014502 4.168908
-0.562542 -1.300923 7.069913
0.345730 0.302827 2.973638
-0.360563 -0.379826 3.238400
-0.457368 -0.589953 4.383023
-1.708082 2.197109 3.565760
-0.501505 -0.815555 4.583002
-0.334098 -0.439447 3.656854
-2.554279 0.379199 4.399634
-2.395116 0.295924 4.532770
-1.328849 -1.866596 3.045198
0.803142 -0.136136 5.047077
0.445066 1.289655 7.129051
-1.139518 0.011466 2.716178
-1.333405 0.311153 6.907898
-2.374891 0.299098 4.544837
-0.093119 -0.997182 5.213149
0.356597 -2.922990 4.845211
-3.277866 -0.182988 3.450657
0.082147 1.632691 3.588282
0.755814 -0.281123 3.845834
0.657398 -0.000030 4.286587
0.852575 0.315866 8.224826
-1.962231 0.473439 8.509922
0.295086 0.327139 3.265969
-0.664399 0.809108 5.054302
-0.631730 -1.973977 7.179915
-2.190156 -0.972271 4.259188
1.383523 -0.066887 8.894094
1.088031 0.699877 5.505698
-2.438804 -0.531223 7.711442
0.754523 0.527897 5.212417
-2.720220 -2.034363 2.880308
-0.489788 -0.027846 3.229252
-0.558684 -0.843817 5.593367
-0.933963 -0.580169 4.764486
0.606710 0.024779 7.290303
1.257816 -0.580580 6.301279
0.639392 -0.219456 7.968323
0.633694 1.417387 8.844616
-0.171992 1.738605 4.812158
2.678168 0.100890 3.756721
0.233586 -0.003840 1.568709
-1.664513 0.204625 4.684663
2.043438 -1.811995 5.665259
-2.341740 0.716337 5.007905
-0.305737 -1.445995 9.455088
-0.267106 -1.170757 5.786094
0.031229 -1.107712 5.297464
0.725020 -0.142250 3.054252
-2.637478 -0.976462 4.003558
-3.268185 -0.899843 3.648758
2.392674 1.769719 8.188735
1.380503 0.831264 5.648458
0.694186 -0.133034 5.969461
-0.292588 -0.401197 3.526997
-2.880024 0.860738 5.036568
-0.547591 -1.601064 4.618355
-1.363432 0.423889 8.877828
-1.053620 -0.776048 6.338832
-0.944206 0.272973 8.028972
0.525751 0.294174 3.873259
1.061114 -2.607252 4.699947
1.469151 -1.385247 4.064192
-0.658324 0.161812 4.127664
-0.155602 -0.032728 0.365285
0.934723 -1.112364 8.993167
-0.725300 1.446922 6.299900
-1.581994 -1.724639 5.372907
0.407358 -1.180122 3.369948
-2.070648 -0.930695 4.298089
0.069518 0.102759 2.292500
-1.265709 0.163001 6.491238
-0.262756 -0.278912 3.367771
1.639073 0.625930 6.288576
0.856515 0.317737 8.226497
0.909174 -1.955858 4.228049
2.533578 -1.604373 6.109672
1.599893 2.220915 3.162339
1.022071 -2.818228 5.428351
-0.076689 -0.136141 2.165037
0.294270 -0.041928 2.503962
-0.523166 0.822592 7.692662
-0.657193 0.052096 4.154567
2.641324 -1.170091 4.801646
-2.346975 -0.483980 4.996673
-1.802586 0.428126 6.606594
-0.988512 1.201533 8.495087
-0.866781 -2.608516 3.725679
1.203987 0.422205 9.152220
-0.514054 -0.445089 3.797041
1.426296 -0.042691 9.010532
0.630645 -0.202751 7.428159
0.339955 0.050024 2.300832
2.372749 -0.576674 8.310229
-1.094442 0.212639 5.867686
2.085248 -1.521916 4.513187
-0.126729 2.032891 3.253053
1.031862 0.751504 6.031355
0.548364 -0.114699 6.023067
3.133846 -0.568576 4.000311
-0.213444 -2.302672 5.580348
0.868238 -2.377335 4.718951
-1.541206 1.248732 4.267780
-0.002264 0.124271 1.211768
0.548403 0.040762 3.989357
-1.054022 0.644012 7.836273
1.434518 1.938147 5.351929
0.511883 -1.837104 6.842326
2.057294 -0.156492 4.270880
-0.446843 1.636753 7.992940
2.608990 1.473001 5.499299
-2.285973 -0.376999 7.491919
0.639060 0.645357 5.580052
0.886743 1.037795 6.704265
0.089672 -0.014112 2.200656
1.348713 -0.035024 6.741967
-3.070730 -1.879970 3.964670
1.381166 0.276324 5.811625
-1.512477 -1.016032 8.310225
1.712015 1.453348 6.889495
-0.354918 2.298644 4.857502
-0.132273 0.062838 1.810682
-0.516998 -1.666583 8.183840
0.891694 -1.393934 3.456023
2.667311 -1.617315 3.444093
0.204918 0.009501 2.969039
-1.298193 -0.963832 6.550623
0.958739 -0.411816 3.904880
-1.596076 1.047745 3.339587
-1.042295 -1.599462 6.580476
-0.627311 -1.426009 7.518501
-0.756310 0.221689 4.843828
-0.530114 -1.320349 7.107218
-1.877112 0.265913 7.512002
0.744667 0.568209 5.013412
0.143631 -2.623119 4.822637
0.224968 -1.227169 4.267554
1.524451 1.355621 6.891235
-0.927754 0.315605 6.058541
-1.116294 -0.077381 3.963915
1.458389 0.695010 7.014577
2.826871 1.013422 6.700978
0.044389 1.989588 8.528829
-0.383933 -0.654096 4.863562
0.678959 -0.184332 7.584215
0.886993 -0.112858 4.871755
-0.226918 -1.225380 5.842569
-1.159892 -0.722103 5.746566
1.211040 0.667610 4.666174
-0.588429 0.721668 8.604360
-2.766915 0.421354 4.348935
1.240991 -0.296221 4.801680
-2.371148 0.170135 4.468414
0.419468 2.014887 7.301625
1.558452 0.212569 7.461697
-0.846414 2.715342 4.659120
-1.167727 -0.898963 6.508740
-0.714246 0.051880 3.717673
1.457819 0.653564 4.810156
-0.461963 -1.649609 7.794017
-1.575464 0.385672 6.566578
0.900081 -2.163747 4.800798
-0.667008 -0.652349 4.897380
0.429805 2.213147 5.859622
-2.693712 -0.451839 7.874544
1.292510 1.256386 6.833941
-0.214913 -1.682554 5.827111
0.302474 0.101819 3.069262
1.349502 -0.744220 5.866334
-0.601838 -1.028827 6.433235
0.547094 0.546585 4.561746
-0.580713 -1.761206 4.515102
-1.179174 0.286628 6.351789
1.007447 0.642209 5.772956
-2.048855 -0.571532 4.034861
1.552889 0.663498 6.348725
0.512720 0.032428 3.509311
0.671693 0.596966 4.877360
-2.083250 0.438898 6.559518
-0.719286 -0.680020 5.041174
-0.860889 0.524168 7.316032
-0.538697 -0.404567 4.036530
-0.680776 -0.660446 4.874069
0.155916 1.231673 6.313825
-0.363154 -1.357103 4.748702
3.053156 0.643862 5.062907
-1.993841 0.492828 8.635959
0.177020 0.009784 0.882570
1.089825 -0.107772 6.437075
-1.844901 -0.992795 3.039594
1.515299 -0.631681 3.784146
0.207171 1.463608 8.418973
-1.256786 1.088343 4.295480
1.628803 -1.233426 5.836046
1.563483 0.712878 6.322744
-0.612593 -1.294893 7.244373
2.897716 -0.455581 4.048106
-0.294660 -1.348035 4.806998
0.357466 1.257417 4.492678
3.200991 -1.264543 4.531312
-0.433080 -0.584643 4.354885
-2.492414 -0.602618 8.126847
0.581779 -0.117618 5.885043
-1.117561 0.196941 4.560759
0.727629 0.589137 5.324479
0.572573 0.459511 9.243441
-0.282244 -2.557938 5.520082
0.873127 -0.089003 4.713475
1.326976 -0.955831 4.677755
0.002991 -3.168903 4.558446
-0.058902 -0.496296 3.350051
1.310673 2.224174 8.702204
0.327667 -0.969059 3.449360
0.703815 -0.414795 6.909470
-1.759483 -1.358253 8.089093
-0.190728 -0.152210 1.894563
-0.521647 1.004862 8.795130
-0.839575 -2.456673 3.900714
-2.619987 -0.422926 7.840963
1.101489 -0.176622 5.773515
0.064540 0.120184 2.268759
2.670267 1.545858 4.026905
-0.258571 -1.069326 5.698708
0.552783 -0.108726 4.344840
0.996349 0.904941 3.972291
0.363360 0.550518 8.664158
1.950632 -1.341249 4.681931
0.306127 0.139159 3.106046
-0.439504 -0.297784 2.964674
0.414386 1.061485 3.204550
0.508955 1.760370 4.391866
3.049814 -0.820721 4.141923
0.849489 0.658377 5.475817
1.080204 0.681432 2.529543
0.435394 -0.069347 3.270467
-1.733541 0.337155 7.768550
-0.383215 -0.980342 2.577560
1.368115 -0.051529 6.764125
-0.719587 -1.784987 8.323869
1.850795 -1.656039 4.115530
1.528278 -1.412595 4.467531
-0.018360 -2.413209 5.423460
1.680307 0.591723 6.306693
1.022799 -0.182730 5.467669
2.569930 1.999067 2.912745
-1.003641 0.229293 5.589357
-0.140298 1.389434 7.688090
1.570590 -0.386337 8.494109
-0.924824 0.379041 3.410315
1.435865 2.262983 5.272754
-1.564585 -1.894789 6.352556
1.794183 0.742279 6.446944
-1.155517 -1.829025 6.575274
0.582864 1.023333 6.867401
-1.409696 0.033256 5.665643
0.829256 0.666419 5.469694
-0.290991 0.070339 2.546074
-1.494075 -0.766531 3.117160
-1.564233 -1.947390 6.293181
-0.097368 0.084585 1.462929
1.401715 -1.353964 4.085655
-1.340675 -0.895912 7.434778
-3.209252 -1.689297 7.311426
2.483103 1.153891 2.725426
-1.671660 -0.787685 7.753662
-1.904727 -0.293051 6.000264
0.062427 -0.110649 1.008990
-0.856958 1.699421 5.231289
0.178249 -0.025118 2.730732
-0.318809 -0.100753 2.216156
-0.590459 -1.106875 6.337103
0.505853 1.754272 4.395973
0.339591 -1.375811 5.372467
1.636946 0.611183 6.363772
-0.226788 0.066388 2.448221
-3.322046 -1.556815 4.259835
1.897765 -1.256227 7.102415
-1.294935 2.377898 4.974840
-0.143006 -2.080063 4.869293
-0.621749 1.199722 4.023231
2.126936 -0.708495 7.456726
-1.480676 -0.800197 7.436059
-0.607033 0.033643 4.112636
0.796922 -0.670758 8.069526
-1.845226 1.362195 5.459484
1.291729 -0.544880 6.325606
0.330523 -1.019867 3.470992
1.506164 0.677425 6.250304
0.166023 0.048635 0.700251
1.801026 -1.552539 5.733607
0.415340 1.027474 4.512260
-0.380299 1.020058 4.044116
0.102814 1.265129 6.382539
0.319218 0.098459 2.202049
1.682993 1.138791 7.467997
-0.606134 -1.531772 6.840187
-0.690857 1.226973 4.022040
0.692450 0.724550 5.945546
0.072122 0.909631 3.838417
0.476921 1.496576 4.476810
0.920633 2.346586 4.608015
1.530544 -0.226204 6.625235
-2.165779 -0.614675 6.000046
1.073119 -0.183057 5.511819
-0.359931 -0.250776 2.999817
1.137578 -1.079922 7.372822
0.904924 -0.895471 4.794685
-0.230615 -2.003937 3.727788
0.350245 -0.045259 2.690948
-0.076861 1.318349 7.784319
0.859972 -2.399395 4.708436
-0.839899 0.281239 5.618890
0.497309 0.290608 3.382393
-0.513931 -0.873913 6.199176
0.473963 -1.063952 3.452700
-0.207357 -0.399417 2.726989
-0.472560 1.545202 5.433132
-0.983082 0.175229 5.767102
-0.268480 -0.025729 3.074462
-0.901458 1.161020 6.467220
-0.826757 0.489438 5.911002
2.157722 0.556412 6.085223
-0.232698 -2.482137 3.374852
1.004032 -2.537538 4.717007
1.150773 -0.246136 5.914298
-0.212218 -0.052000 2.539316
0.411002 1.076150 3.188633
-0.683055 -1.520848 7.828955
-1.378810 -0.844167 7.315710
1.485858 -0.213506 6.494418
0.715821 -2.063066 6.809939
-1.746468 -0.206313 5.964657
0.653450 0.026363 5.319823
-2.117668 -1.160010 2.924091
-0.036976 1.405696 7.784969
3.215213 0.402466 6.106599
3.226281 -0.874216 4.015562
1.339565 -0.222859 6.285467
0.524430 -0.014774 5.161392
-1.558237 -1.289941 8.813613
0.210421 0.141057 2.419362
-0.675672 0.143258 3.380229
0.933098 0.597641 5.707665
2.496056 0.119615 7.709261
-1.661023 -1.171232 4.111905
-0.993782 0.568971 7.556879
-2.221767 0.388665 8.461194
-0.847704 -2.592609 3.758970
-0.165478 0.040914 1.319337
1.537267 0.619734 4.809227
-0.653906 -1.408389 7.569271
2.507359 1.519722 8.181731
0.681167 -1.876536 4.272317
2.297352 0.896815 6.666823
0.141418 1.520019 8.522345
1.576383 2.184875 3.233237
-0.872284 0.402239 6.569742
1.323858 -0.409644 4.820250
1.825555 -1.551400 5.725535
-0.444852 -1.068055 6.468009
-0.682814 -1.141417 6.341197
-2.771289 -0.787208 7.698072
-1.181555 -0.816929 4.274914
1.547261 0.646700 4.849996
-1.614172 1.088107 3.349473
1.334086 1.306572 3.848972
-0.279472 -0.061956 1.859161
-0.181284 -0.107467 2.693231
1.248587 -1.109232 6.525360
-0.767068 0.171113 4.673623
-2.155822 -2.202141 6.138897
-1.001133 0.659339 4.199493
-2.869015 -1.709721 4.125988
-1.367329 0.318570 7.002923
2.501698 1.416129 4.184910
-0.539896 -1.600279 4.612893
-0.426223 -0.745193 4.912289
1.909988 1.080892 4.536418
-1.116410 0.197521 6.090499
-0.422778 -0.919513 4.567208
0.653388 0.678230 5.329356
-0.351409 -0.354389 3.109537
-1.937379 -0.526309 4.094196
-2.377139 0.377342 7.979532
0.913415 -0.051230 5.137750
-2.207227 -0.053894 7.409465
-0.204820 0.037126 1.649716
-1.277538 0.280294 4.691576
1.173825 0.736582 5.591064
-0.047770 0.769481 3.881265
-1.076750 2.027425 5.141187
-0.753595 -0.604016 5.091575
-0.883237 1.787145 5.200280
-0.209882 -0.433050 3.221504
1.043588 -0.177653 5.591086
0.804217 1.104584 5.066191
-0.772856 0.997549 5.185035
-0.757841 0.204480 5.680839
0.970890 0.649047 2.605407
0.404521 0.136388 2.805053
-0.060271 0.035521 1.939105
1.208858 -0.203534 5.900145
2.501986 -1.175597 4.832538
-3.460182 -1.019577 4.164716
0.382816 -0.581835 7.569146
-3.312067 0.191775 3.147713
0.432907 -0.045293 3.106802
3.422845 -0.628258 3.823509
1.405310 2.107775 5.304670
-1.745461 -1.319297 4.054092
-1.201436 0.516974 5.312903
-2.780233 0.118817 5.564236
2.664457 0.740470 7.573525
-0.724754 0.228870 5.231614
0.818730 -0.674803 7.152927
-0.081144 0.120073 0.038713
-0.393709 -1.223857 2.286802
2.707776 -1.833411 6.184264
2.211665 0.163651 7.637460
-0.430466 1.630122 7.999675
-0.756085 0.434845 5.805359
0.567147 -1.816685 6.221523
-1.859660 -0.139363 7.200062
-2.125988 -2.108367 8.295938
0.538357 1.235987 8.200616
1.049896 -1.429990 3.385218
0.114888 1.025924 3.819122
0.478840 1.234507 6.158148
-0.589443 -1.297617 7.181669
1.797690 1.107409 5.691058
0.157974 -0.058902 0.345091
-1.550145 0.861945 5.483619
-2.661846 0.485208 6.554792
-0.401694 -0.302141 2.988450
3.437989 -0.568295 3.804346
0.068113 -2.631106 5.245930
-0.447945 -0.396420 3.436181
-1.982294 -0.638630 6.004771
0.501868 0.336739 2.667415
0.470025 -0.060494 5.104150
-1.198949 -0.114838 3.994275
0.975643 -0.587154 3.985205
0.214141 0.134987 2.511163
-0.625428 0.715860 6.736019
1.871773 -1.221987 4.797064
-1.713666 -0.030371 3.912566
0.360977 0.868004 4.382109
-1.638323 -0.971961 8.326311
1.369010 -0.147688 6.301422
2.338335 -0.054179 4.129722
2.559010 -1.534577 3.652385
0.305054 -1.493538 2.583032
-2.135043 0.214348 4.584143
-1.055458 -0.821167 6.247957
0.646371 0.612893 5.461168
-1.407963 0.073821 5.676974
-0.143130 0.017023 1.135188
1.014488 -1.016163 7.341420
-1.442684 -1.187649 7.341168
-2.245237 -2.263960 8.317114
0.605422 0.692243 5.197580
-2.131729 1.793485 5.491227
-0.080745 -0.101999 0.620934
2.674495 -0.661404 8.395013
1.998119 -0.465093 4.762692
-0.626709 -1.454875 6.719866
-3.160905 1.563949 4.637277
-0.412313 0.136224 3.286097
-1.260580 0.480160 6.535803
0.588487 -0.037889 3.937088
0.644619 0.430459 4.445416
2.175083 -0.527980 8.176095
-0.801314 0.839548 7.923222
1.098278 0.717526 6.337035
0.837384 -0.036593 4.967736
1.743197 -1.105755 5.982453
2.708815 -0.038869 8.418236
-0.624077 -1.832665 4.492897
1.665718 -0.245714 3.115696
0.882804 0.365737 8.249597
2.023731 -1.465894 4.592454
-1.194702 -1.176518 5.322551
0.271198 0.070791 1.841741
-1.486116 -1.540200 5.369622
-0.049029 -0.069956 1.386445
0.058288 0.042287 1.524773
-2.842355 -0.819085 3.852217
-0.175669 -2.084849 5.639612
0.603684 0.991159 6.739214
0.916758 -0.466118 3.895959
-0.246296 2.428546 2.820811
0.812618 1.397541 7.936846
-1.506934 -1.081763 8.483833
0.721624 0.677459 5.715731
-3.196269 -0.557522 5.805595
-1.833552 1.421046 5.496499
0.265414 1.167400 6.214098
-3.679282 1.172651 4.992444
-0.131069 -0.992404 4.112016
-1.845676 -0.911194 4.347398
0.362026 -1.091295 3.420429
-0.141747 -1.723653 7.371805
-0.672065 -1.596923 7.982700
2.190880 -0.158526 4.220798
-0.996132 -0.731826 5.753344
1.989429 1.560560 3.673080
-0.681168 0.436424 4.773618
0.147570 0.693066 3.727041
-0.735833 -0.028184 3.753791
0.532808 0.507507 4.312694
-2.770677 0.520447 8.276814
-0.232405 -0.298872 3.212022
-0.499524 -0.838580 5.945079
-2.787077 0.855796 5.008483
-2.025767 -0.523051 4.074979
0.612326 0.028111 4.293051
-1.715722 0.824519 7.030147
-1.055251 1.393210 6.589437
-1.561572 0.398774 6.577666
-0.370980 0.121704 3.421375
-0.767713 0.152693 5.351477
1.890828 -1.637996 4.529638
0.457676 1.162273 6.076279
0.885194 -2.160951 4.813339
0.562123 0.958178 5.999947
-0.404259 0.097633 3.744766
0.852375 0.625195 5.350595
2.764505 -0.640006 4.325601
0.379304 1.337115 3.136487
1.619797 -1.738206 4.314826
1.275608 -0.643685 6.400084
-1.378260 -0.992178 4.184635
-0.581032 -0.780970 5.545783
0.597534 -0.084147 6.512146
-0.328233 -0.314814 2.904446
2.041725 -0.185642 7.795649
-2.164845 0.583410 4.983435
2.262469 -0.160528 8.163391
-0.513210 1.932411 6.738849
1.505407 -0.009935 6.823488
-0.425844 -0.252927 2.934846
-0.340032 -1.599295 7.064071
-1.860293 0.451427 4.944294
-1.550167 -1.422254 7.774117
-1.194019 0.927721 4.263464
0.580109 -0.117201 6.963916
0.595761 2.154318 5.827610
1.594856 0.204661 7.476416
-2.757903 -1.077019 3.999720
-1.780592 0.872184 7.100365
3.207444 0.376399 6.104461
-2.657811 -0.135542 7.347231
0.642156 1.114152 7.595498
0.687535 1.397954 2.949277
1.300168 -0.523458 6.353824
-0.780547 1.341277 4.036974
-0.545196 -0.687777 4.876694
-0.835463 0.376772 6.436855
1.202362 0.718886 6.563739
-0.745446 0.350386 5.774040
1.701253 -0.418517 6.400030
-0.769379 1.250056 6.350086
0.622421 -0.069187 5.858758
-0.592361 -0.583034 4.789756
2.561053 -1.267408 4.822955
3.124475 -1.206358 4.586843
-0.571441 -0.832872 5.862220
1.063213 -1.046805 7.335961
0.856606 -1.968656 6.349273
0.027623 0.130585 1.511077
-1.325905 1.146143 4.309986
0.651625 0.639061 5.573753
-1.025268 -0.513729 4.877147
-0.647639 0.756121 7.585680
0.858128 -1.245870 4.916217
1.383581 0.499053 3.591879
-0.630775 0.183230 4.219071
2.156469 0.814580 7.490968
1.143657 0.670546 6.524156
-1.742128 -1.324278 4.023035
-3.088402 0.421633 4.233296
1.219023 0.573581 4.697693
1.245991 0.851838 6.419922
-2.190653 0.779189 9.637835
-0.490609 -0.452857 3.751634
-0.604560 -1.502324 1.674633
-0.369203 -1.182900 2.369661
2.433147 -2.227347 4.166363
-0.275181 0.084609 2.632484
0.652161 0.434256 4.395420
-0.372333 0.123292 3.255300
-1.894739 -0.509766 4.063124
1.275643 -0.171409 5.919527
2.793062 -0.703252 8.449604
1.174742 0.652602 6.031406
1.379007 0.910647 5.647897
1.660346 0.747852 6.404239
1.595730 -1.007177 5.970862
-0.476378 -0.887069 6.044782
0.218441 0.004815 3.038332
0.434262 1.078939 3.168525
1.268924 -2.140131 4.166367
0.618144 -0.031146 4.399833
