0.162288 0.011483 0.420654
-1.079384 1.241957 6.018446
0.164293 0.032484 1.292601
-0.523145 -1.388616 4.751952
0.102439 0.013264 1.434339
-0.013551 -3.856920 5.029572
0.556457 -3.069082 6.361249
1.110985 0.228448 5.140826
1.117183 0.189950 4.761926
-0.968477 2.555535 4.784836
0.063944 0.425540 3.350278
2.228603 1.429321 6.355426
-0.689829 1.295320 4.463180
0.361804 -0.352267 2.666181
0.533804 1.059751 7.235805
0.114428 0.614687 5.690569
-2.310798 -0.554799 7.957627
1.052074 -0.917031 4.920492
0.932250 -0.791892 4.574078
2.997180 1.251103 7.434732
0.323623 0.499802 2.664477
-0.497158 0.661101 3.470432
0.164745 -0.189110 1.836555
0.582145 -3.163710 6.330452
-0.838286 1.119550 5.032754
-0.045649 -0.051336 6.669480
3.454901 1.409143 7.851637
0.372550 -0.283922 2.362136
0.593130 -0.400329 3.378753
0.719804 -0.968003 5.128168
0.286488 -0.264724 2.389069
-0.189910 -0.113247 4.395494
-0.089733 -0.297861 1.609454
-0.778752 -3.005691 5.368031
-1.374992 -1.060542 6.065556
-0.652308 -1.514402 5.429394
-0.481176 -1.411905 4.943063
-0.327288 -0.712564 3.215850
0.022512 0.053346 1.735821
2.382159 -2.845896 6.475753
-0.870743 0.433424 7.720603
-1.045251 0.930186 8.063059
1.505707 0.039616 5.814109
0.655578 -1.358728 6.654185
0.488285 1.246593 4.612739
1.618679 -1.123378 6.978444
-0.750488 -3.207212 5.380495
-0.075427 1.303917 6.995900
-0.668593 0.091443 7.010353
1.177624 0.225289 5.022917
-0.106101 -0.252102 3.335032
0.940685 0.148801 4.199113
-0.016195 -0.142779 0.608313
-0.246211 0.198728 1.860895
-0.606028 -0.007618 2.930040
-3.191128 -1.839084 3.904482
1.094894 -0.986725 5.318685
0.018127 0.122041 1.480888
0.853299 0.179428 7.846510
2.457702 -2.561533 6.705084
-2.319885 -3.864459 4.042386
0.173165 0.023077 1.312900
0.205761 0.421932 4.750769
-0.436969 0.222053 2.261018
-0.375600 -1.093512 4.077988
0.124037 -0.000012 1.319044
0.971346 1.533973 6.484569
0.145393 -0.019273 1.428591
-0.735052 0.837074 4.030270
0.722704 -1.087508 5.011250
0.039789 -0.115666 1.386170
-0.695055 0.669668 3.589979
0.987751 0.470578 7.035305
0.212714 0.098368 1.685881
-0.069110 0.164134 0.216979
-1.438107 0.324793 5.686973
1.939514 0.761837 7.768245
-1.035381 1.182576 5.777745
-0.381884 -1.218740 4.401883
-1.205400 -0.668721 5.602437
-1.356835 3.643840 4.291790
-0.125215 2.713820 5.817498
-1.670012 -3.695210 6.822501
0.660916 -1.059363 5.116131
2.413861 -0.822206 5.109373
-1.203094 1.390593 6.330867
-1.141753 1.367040 6.292877
0.657504 -1.081516 5.211074
-0.251872 -0.040077 2.035107
2.951596 -2.097836 7.025762
-0.745006 -0.014143 3.379352
0.496817 1.058467 4.358596
-1.401478 -1.721442 6.407518
1.139169 -0.893243 5.143087
-0.176304 -0.065205 1.401281
-1.147837 -0.369808 4.119089
0.711610 1.504420 5.956019
1.916969 -0.813774 5.061957
-2.158230 0.487514 6.081678
-1.460759 0.299855 5.643484
-0.045029 1.354963 7.101699
0.208491 0.027552 7.931736
-0.172847 -0.183297 3.198668
-0.798628 -0.084349 3.960583
0.404768 -2.081405 5.977501
0.091818 -1.965151 5.539483
1.136640 -0.943731 5.490134
0.773813 1.773323 6.901140
2.866470 -0.909251 4.952501
-0.904890 2.283705 8.384280
0.258379 0.536796 4.893315
-2.706044 -2.337239 6.355669
2.461964 -1.134315 6.815924
1.771971 -1.173050 5.403929
0.058643 0.008422 7.080088
-2.909250 0.600981 6.403753
-0.692746 1.015332 4.793089
0.244681 0.564693 5.385028
-1.319969 -0.009473 8.090576
0.111197 0.505227 5.278939
-0.929158 -2.251691 4.787129
1.372593 1.255510 7.454891
-0.350626 -1.063184 3.580584
2.932054 -1.539872 6.975729
1.809883 0.230378 7.002991
-2.932494 0.656053 6.398170
2.869146 -0.937575 4.905675
-0.992913 2.796118 4.706693
0.546885 1.188787 4.783024
1.576244 -0.800907 4.844526
-1.323243 0.161407 5.399809
0.539600 1.311159 4.782734
-0.020356 -0.252901 2.201634
-0.226003 -0.130016 3.685288
1.129171 0.205881 5.371557
-0.440299 -0.019031 2.791696
-0.216101 -0.220579 2.811947
-0.561993 1.113541 4.297104
-1.914572 -2.921689 6.772645
-1.307616 -2.480882 4.816219
0.060336 0.741966 8.251910
0.387540 -0.384855 2.860479
-1.736586 1.827080 6.413231
0.209558 0.588122 4.880979
-0.547013 1.910654 7.314384
0.571982 1.347007 4.924303
3.027711 -0.529797 5.155842
-1.268308 1.444928 5.906689
-0.413693 0.417654 3.107904
-0.428847 0.011626 2.597093
2.924435 -0.588396 5.218546
-0.485003 0.639722 3.391740
0.159259 0.586543 4.746729
2.054520 2.591356 3.000050
0.189288 0.647034 5.865519
-0.112712 -0.413867 1.934981
-2.967082 2.794888 8.157377
-0.384788 -1.553269 5.194551
0.903904 1.839772 6.923421
1.528006 -0.953375 5.052547
2.879698 -0.983347 4.903415
-0.776597 -3.889461 5.631918
-0.602006 2.736805 8.114970
-1.024769 2.941813 4.757239
0.827320 -0.024052 3.920005
-0.998043 2.679394 4.741146
-3.277343 -1.953717 3.578987
-0.278758 -1.711148 5.814997
-0.317524 -0.662066 2.763310
-3.316637 -1.864663 3.585895
0.164862 -0.177357 1.723955
-1.681953 -1.820419 6.574896
-0.265790 -0.866546 3.092889
-1.989123 -0.010419 8.468198
-0.739521 -1.844892 4.593323
-0.716505 -2.580565 5.110575
0.542649 -2.605032 4.260055
0.088723 0.699819 7.509828
0.086195 0.502593 3.937180
-0.640659 -5.315141 5.215710
-1.602159 0.657551 6.418150
-0.470854 1.638845 4.732408
1.136986 1.444568 3.966583
-1.081859 2.941093 4.674022
1.993668 -1.308257 5.772733
0.041120 2.030254 7.088343
0.724779 -0.795746 4.045268
-2.958175 0.653066 6.452433
0.259391 0.722801 6.124605
0.888555 -1.676054 6.193650
-0.808852 -2.590316 5.117360
-0.546163 0.118557 2.638658
-0.895078 -2.168453 4.827852
-1.745911 -1.768352 6.507660
2.054335 -1.515097 7.055474
-0.047890 1.931493 7.023279
-0.326905 0.111672 2.652564
-0.153125 0.141616 1.351084
-0.571020 0.050845 6.594679
-0.285564 -0.483920 2.727651
0.798708 0.038622 4.105318
0.012132 3.192471 6.041450
-0.774020 1.235488 5.714340
-0.775290 2.084127 4.811109
3.476739 -1.247404 4.271110
-0.600674 2.797539 8.118147
0.971258 0.429946 7.048864
0.205843 0.363529 4.026537
-0.433100 1.955631 7.621373
0.585010 -0.077234 2.740835
-0.177728 -1.810134 6.318330
0.348084 1.024513 6.897756
3.592537 -0.501621 5.701963
-2.381361 -2.088976 6.456184
-0.004914 -0.105880 1.807873
3.420751 -0.482574 5.827434
0.107915 0.539584 4.579706
-1.291100 0.033457 8.065243
-0.510842 0.055994 6.604295
-0.439574 -2.075449 5.297356
-0.602931 -1.801492 4.607966
3.422749 -1.217078 4.381872
-0.168930 -0.139757 1.925039
-0.222800 -0.354669 2.572327
2.941267 2.281810 6.161287
0.560822 -2.948255 6.367155
-0.040063 2.938320 5.932875
3.105529 -0.494313 5.168240
-0.210810 0.218874 1.985245
-0.301828 -1.981024 7.852613
0.419942 -0.145991 2.735514
-0.433444 1.818334 5.048962
-0.766562 -4.595985 5.597543
0.258105 0.484342 2.441608
1.131906 0.323183 5.986988
0.070442 0.001632 7.475915
-0.315809 -0.896132 3.464281
-0.128339 -0.058062 1.874617
0.232731 0.615650 5.695462
-0.329395 1.770729 7.490723
-0.339649 -1.088466 3.980808
0.131404 0.710173 8.094795
-1.519750 0.526049 6.040938
0.611628 -1.654777 5.843971
-0.140890 0.075660 1.231525
-0.807157 0.114504 7.142822
0.435337 -3.711436 6.215759
0.382166 -0.203843 2.109753
0.430333 -0.425526 3.203514
0.036618 0.747507 8.382838
-0.021998 0.291932 1.823672
-2.686557 0.613664 6.338563
1.013243 -2.746041 5.307971
0.004953 1.245833 7.013777
0.156768 0.641511 5.619635
-0.243404 -0.408708 2.140138
-1.041520 -0.196380 4.720646
0.106652 0.615196 5.835829
1.317477 0.207155 7.769171
2.873571 2.214359 6.217723
0.240168 0.539727 4.209941
2.002322 -2.143304 6.743287
0.489140 -0.190878 2.344082
-0.310517 -1.988517 4.989797
0.653992 -1.595282 5.786133
-0.057719 -1.757209 5.465240
-0.815670 -4.242025 5.663737
0.106931 0.442086 4.647937
-1.244784 -1.673711 6.328714
-1.218497 -1.581726 7.801813
-1.738835 -2.537897 6.831115
-1.106378 -0.410995 5.478819
-0.300053 -0.306452 2.543640
-1.058085 3.485600 8.062640
-1.469002 1.615500 6.251200
-0.191138 0.066231 1.363422
1.324270 -3.113928 4.769967
-2.190184 -1.983448 6.494830
2.785481 -0.913487 5.015369
1.157545 -1.966230 7.030791
0.508715 -1.584270 7.215579
-0.610183 -1.551478 5.224478
0.849965 -0.872337 4.721762
-1.002325 0.812403 8.030952
0.759291 -1.594268 5.944005
-4.601646 0.976564 6.105870
0.159756 0.614398 2.835317
0.128285 0.625662 5.705419
0.315531 -0.265005 2.667178
0.319704 -0.239151 2.714153
2.621111 1.972851 6.258219
0.583417 -1.651321 8.120634
-0.019730 -1.803423 5.510228
-1.083712 3.013121 4.658149
0.233280 0.552132 5.791411
0.258411 -0.225668 2.345852
-0.741043 -2.257132 4.901483
-1.583891 0.772872 6.477310
0.173519 0.623749 7.179796
-0.287335 -0.151965 3.881019
-0.276425 -0.369000 2.295241
1.316740 1.338326 9.249458
-1.565971 -1.493607 6.360060
0.010234 0.775590 8.435119
-1.283014 -0.432499 6.146073
0.541160 -0.645632 3.570960
-0.852219 -0.205624 4.135069
1.478001 -1.168491 6.124460
-0.206712 0.024448 6.161046
0.331048 -0.293157 2.410557
-1.029864 1.229663 5.567222
0.918479 1.241596 8.141193
-0.647994 2.123085 7.834453
-0.062821 1.331663 6.989770
0.180024 0.186505 2.198077
1.007372 0.467950 7.115286
0.221449 0.488040 5.247643
-0.937718 1.192810 5.376176
-0.620288 -0.422142 4.009376
1.418337 0.234964 5.937332
0.044150 -0.013076 1.846511
-0.941345 -0.103435 4.400920
0.882473 -1.622149 6.283545
0.790723 0.064434 4.114718
-1.721886 1.859271 6.441440
0.590484 1.421904 5.549356
-0.279280 -1.626968 4.536808
-1.507870 -0.062989 8.208991
-0.001640 0.165660 0.596829
0.587580 1.167341 4.574039
1.028396 -0.828535 5.048151
-0.817747 -5.784899 4.621029
0.832726 -0.873887 4.439951
-0.749317 0.886341 4.671155
3.794854 -1.412752 3.500939
-0.481195 -1.114671 4.027375
0.095735 0.315329 2.878391
0.154065 -0.023229 2.076516
-0.318282 -0.226744 3.429362
-0.584843 1.759336 7.789557
-0.800265 -2.613585 5.089390
-0.020269 0.244407 1.582344
-0.461397 0.058522 2.453751
1.210375 -1.022414 5.505513
-0.896391 -0.128708 4.534741
0.218167 0.504633 2.728831
1.356463 2.390469 7.090581
-0.649431 0.090479 3.196026
-1.389817 0.420356 8.887629
-0.659084 0.575597 3.295779
-0.211519 -1.773203 6.288838
0.021650 -0.131976 1.842324
0.392536 0.086395 8.806470
0.794704 -0.801550 4.611795
0.949522 0.595077 7.868572
0.750010 -1.578070 5.948267
0.134261 0.542820 4.158833
0.240518 4.347354 6.156188
2.523460 -3.050070 5.863882
2.351491 1.725613 6.306051
-0.410571 -1.479027 4.968032
0.659151 -0.588353 3.395940
-0.826588 1.055576 5.186412
1.049766 0.366183 6.679247
0.557301 1.160053 4.357711
0.174967 0.579947 5.912006
-0.685972 0.657610 3.942779
0.011129 -3.879846 4.891761
-0.334259 -0.138973 4.567755
-0.667122 1.593010 4.639004
0.186332 0.355052 4.041701
-0.081543 0.108427 1.301474
-0.297398 -0.434037 2.574984
0.003428 0.164685 0.051175
-0.406957 0.048502 2.362514
-0.649665 1.574919 7.051869
-0.588144 2.045207 7.606394
-0.299373 -0.391750 2.751608
0.040575 0.120107 1.279042
1.501212 2.682213 7.329179
0.267054 0.480943 3.447006
0.639059 -1.120470 5.385616
-0.293190 -0.428029 2.617064
-0.801979 -4.347767 5.661524
-2.111013 -3.584474 4.339674
1.035705 0.123254 4.923400
0.755633 -0.787454 4.519910
-0.312592 -0.264990 3.136228
-0.286141 -0.940158 3.513211
0.032970 -0.119673 1.357596
-0.650201 0.082596 3.133089
0.021958 0.028203 7.264766
3.202991 -0.545520 5.153954
0.597082 1.047353 3.630297
-0.447244 0.001067 2.938323
1.667260 1.964232 3.948692
0.536373 -0.445426 3.492642
-0.392023 -0.760750 3.153873
2.377744 -1.071001 6.742321
-0.639006 0.100658 3.139579
1.178373 0.274273 5.711879
0.580621 1.204145 4.795198
2.799984 -0.418026 6.178368
0.404082 -2.148163 6.076668
0.687076 -0.952130 5.000357
0.625461 -0.711226 4.146899
2.427959 1.053159 6.775481
-0.132587 0.152490 1.968380
-0.201650 0.014892 0.838455
0.104816 1.035804 6.769555
0.427547 -3.691750 6.208429
-1.516447 -1.714196 6.491028
-0.017822 0.178885 1.918626
-0.106241 -0.070711 1.326559
1.446006 -0.789308 4.728394
0.668713 -1.247164 5.325228
-0.812711 1.156408 5.182196
-1.652513 0.782848 6.534879
0.603801 1.063425 3.645113
0.037364 0.151893 1.326304
-0.660859 1.381720 6.168527
1.562865 1.876863 3.996079
1.152383 0.115394 5.163511
-1.556224 -0.784523 7.770325
-0.071671 0.146316 1.264350
-0.235483 -1.721627 5.914260
-0.988112 0.480226 8.409353
-0.581813 0.546405 3.047511
3.080251 -1.065200 4.813732
3.113770 -0.415441 6.060918
0.691136 0.082573 3.621043
0.672050 -1.277651 6.255026
-0.916946 -0.255919 4.546855
-2.314885 0.527059 6.219914
-0.722674 -0.121375 3.448161
-0.722121 -2.990974 5.288948
-0.844500 1.053264 4.916771
2.648992 -1.815692 6.710699
-0.888196 0.290102 8.034568
0.592752 -0.702991 4.039589
-1.551134 0.678400 6.311945
0.978648 -0.717876 4.431455
-0.325879 -1.124089 3.910214
-0.031583 2.978222 5.928946
-1.559496 0.260681 5.630927
-1.986682 -1.943650 6.524540
0.323502 -0.047153 2.404204
-1.792498 -0.765037 4.455940
-0.268414 -0.280100 2.552268
1.029478 1.450381 6.595068
-0.077325 2.870303 5.913031
-0.084313 0.027771 6.708841
2.062816 2.589285 2.911533
0.964531 -0.857102 4.648680
-0.457442 0.592215 3.253975
1.102440 0.224009 5.589762
0.960922 0.161748 4.292430
-0.772423 0.191487 7.333360
-1.077079 3.110267 4.678327
0.778273 -1.545068 6.010436
-1.372055 0.194027 5.411879
1.331670 2.301140 7.068851
-0.181118 -0.222139 2.512362
1.584336 -0.812383 4.959109
0.133818 -1.662810 4.167720
0.154050 0.508480 5.593729
-0.178379 -0.129535 4.186543
0.755394 -1.200723 5.341237
0.246208 0.562931 4.721448
-0.502256 0.124905 2.452512
-0.165237 1.478311 7.151560
0.164966 0.672036 6.124394
-1.841561 -3.136504 4.639949
-1.401388 -1.227110 6.201790
-1.262796 1.427427 6.556613
0.139482 0.752727 6.152816
1.352368 0.415922 5.334243
0.499034 -0.283908 3.072026
2.712506 -2.735581 6.668722
0.574668 1.093968 7.478105
-1.078948 -0.250211 5.337836
1.157054 -2.958383 5.013920
-0.635756 1.528775 6.848628
-0.427200 0.004085 2.646525
-3.218953 -2.717628 6.001516
2.778856 -1.912380 6.840058
3.985570 -0.496929 4.820551
0.222833 0.477181 5.144210
-0.023055 0.139355 1.275850
1.952149 -0.777487 5.049996
0.822796 -2.548126 5.473065
0.642559 -1.434048 5.587791
-0.934873 -1.748011 6.489193
-0.209281 -0.271227 2.398983
-0.690157 1.467857 6.619839
-2.082525 -0.910281 4.509550
-1.127185 -0.325718 4.200963
1.471006 1.799853 3.970143
0.267127 0.423103 2.721702
-0.177626 -0.186591 1.491695
2.236450 -0.338576 6.168252
-0.968563 -0.228408 3.976304
-0.292380 -0.229945 4.677268
1.021189 0.390877 6.873053
-0.192183 -0.797040 3.104996
0.141661 0.597253 5.108731
1.802394 -1.233326 5.630458
1.060001 1.618528 8.432266
-1.230196 -0.391466 5.765090
-2.956478 -1.591364 4.223912
-2.114539 1.641508 7.659307
1.794768 -1.082950 5.454549
-0.973081 1.635219 7.751580
-0.344327 0.361523 2.741471
2.689899 -0.388719 6.205571
3.003757 2.298126 6.162175
0.274552 -0.211590 1.997140
0.378963 -0.072171 2.726477
1.410027 0.566501 5.362344
0.445789 -2.532991 6.262417
0.326961 -0.150238 2.615349
-1.680209 0.368039 5.795694
1.056342 0.187714 4.641281
-1.650368 -1.895432 6.560630
-0.539122 -0.037913 3.277799
-1.608387 -1.423493 7.647849
-1.248737 1.402115 6.671212
-1.638062 -1.467506 7.525431
3.407477 -1.890528 7.029320
-0.961128 -1.686099 6.129933
-0.014044 0.169117 1.935110
1.589394 -1.365809 6.441979
0.287891 0.399195 2.832968
1.027649 1.607385 8.428477
0.598058 -1.303108 6.378362
-0.528328 0.239414 2.868894
1.332641 2.090698 7.163925
0.580929 -2.905656 6.326195
-0.175108 -1.142801 3.740223
-0.260744 -0.870655 3.122345
1.486394 0.050579 5.770148
-1.002524 0.060767 7.625095
0.969532 1.659502 6.466605
0.154949 -0.203740 1.966722
-1.351648 1.520085 7.160471
-0.139529 0.025102 1.406259
-3.766927 0.833907 6.523235
-0.995173 -0.298376 4.094790
-0.321272 -1.021878 3.469545
0.372706 0.763911 3.512890
0.931558 1.555638 6.376730
0.680991 -0.686521 4.222638
-1.622563 0.677236 6.433507
-1.080495 -0.206345 5.020294
0.133358 1.014021 6.584076
0.645746 -0.083839 2.908481
2.699420 -2.721235 6.656845
-0.343843 -0.654365 2.867010
-0.891677 -0.127532 4.005007
-0.073903 -0.033954 6.493203
-0.305984 -0.790647 3.357241
-0.957063 0.282126 8.330172
-2.608283 2.766939 6.910359
0.953886 0.438522 7.812785
0.020276 -0.159101 0.183329
-1.193951 1.412730 6.448043
0.113271 0.126519 0.088465
-0.160326 -1.155244 3.788814
-0.636336 1.547695 4.669812
-0.191139 -0.675123 2.736945
-1.386360 3.860582 4.122114
-0.971742 -4.479658 5.725897
-1.048534 -1.734443 6.976047
-0.414967 1.642045 6.787573
-0.196172 -0.002835 0.532352
0.788914 -3.419910 6.471566
-0.022475 -0.319008 2.255617
0.983993 0.487118 7.297897
-1.801675 -0.898271 8.112137
-0.376914 -2.591876 7.501777
1.004096 0.470718 7.166786
2.603633 -0.410537 6.187600
1.828119 -1.198638 5.465533
3.783795 -1.409894 2.802652
-0.281810 -0.960496 3.588269
1.200367 0.266457 4.903553
0.600683 -1.314226 6.396332
1.490244 -3.263995 3.903199
-0.415186 0.453274 3.152994
1.541053 2.877005 7.527016
0.287922 0.557395 3.028506
-0.318151 0.207294 1.968562
0.082574 -0.148837 0.334965
-1.270343 0.843383 8.250340
0.307126 0.895614 3.586593
-3.225039 -1.840735 3.818742
0.506048 -1.642932 7.239118
0.657888 -0.854805 4.406549
-0.840195 -0.091100 3.876128
0.463553 -0.082122 2.990657
-0.260924 -0.923404 3.306564
-2.098110 -1.975944 6.539841
-0.145326 0.039987 2.052745
0.803169 1.155796 3.792748
0.650757 -0.418517 3.255602
0.861370 -1.589331 6.033730
-0.100831 0.183878 1.623178
-0.350403 -0.285211 3.319364
-0.162733 0.071498 0.425239
2.204071 1.464210 6.335633
-0.736143 -1.604254 5.739685
-2.103801 1.326185 7.567137
-0.746063 0.792694 4.369903
0.650504 -0.138655 3.137341
0.012259 0.308063 2.166243
0.477956 0.951853 3.684864
0.248364 0.585614 2.624681
1.212125 -0.964347 5.691524
0.787509 -0.790161 4.154736
0.125563 -0.027970 1.455911
1.143935 1.453606 3.972814
0.941570 -0.869317 4.615457
0.079775 0.447625 3.835015
-1.452152 -1.385388 6.321965
0.900573 0.053263 3.910332
0.159823 0.586594 4.740379
0.980170 1.372933 3.878609
-0.892848 1.139832 5.190708
-1.569553 0.493769 9.319126
-0.486353 0.436642 2.759307
-2.016800 -3.433069 4.460696
1.490225 -1.237728 6.177759
-0.104061 2.581687 5.733375
2.852550 -0.583031 5.196869
-0.137434 -0.115443 1.398872
2.883910 1.168448 7.338092
-0.319469 -0.135179 4.373841
1.246097 0.323770 5.173568
-0.843169 -0.185579 3.954274
-1.100633 -1.664343 6.240782
-0.275309 -0.007332 5.564864
1.457862 1.266044 7.543690
1.347392 0.218961 5.659854
0.891870 0.061044 3.891247
0.373285 0.744900 9.191911
2.004944 -1.429016 5.930731
1.256466 1.270004 9.110319
1.926542 -1.371074 5.805397
0.061891 0.453169 3.376529
-1.820871 1.944967 6.519392
-0.190092 -0.519953 2.824861
-0.226304 -0.029817 2.079719
0.500867 1.006826 3.882668
0.083434 0.496488 4.057495
-1.059892 -0.292243 4.903255
1.429383 0.236794 5.939966
-0.427675 0.086318 2.077435
0.945233 1.524989 6.481784
-0.034779 -1.784252 5.490876
0.409732 0.850481 3.474929
-0.610673 0.705870 3.464670
0.529752 -0.355753 3.265128
3.992875 -0.592056 4.670147
-0.553526 0.016888 2.754505
-3.219590 0.702610 6.442859
2.711309 -0.671781 5.128461
1.675950 -1.368373 6.449242
1.365637 0.165818 5.710116
-0.075521 -0.144325 1.977665
0.135403 0.533877 3.709968
-1.418041 -5.708094 5.474520
-0.136746 1.478785 7.129251
0.769791 -0.780815 4.093526
0.956470 0.176670 4.422416
-1.031974 -0.289412 4.796853
0.947626 0.470211 7.497003
0.237594 0.221583 2.152720
-1.117370 1.275590 5.672487
-0.038161 0.115400 1.785416
0.926339 0.608550 7.922716
-2.546301 -4.167884 2.939065
-1.000323 -0.154456 4.727268
-1.472583 0.485868 9.116752
-0.227048 -0.236133 1.818639
0.626368 -1.009640 5.099755
0.502235 -1.901841 5.900623
-0.161053 0.085712 0.788598
-0.287808 0.256970 2.199571
0.273708 0.441433 4.238597
1.057867 0.143549 5.025056
0.124428 0.645135 7.517597
-0.360477 -0.158068 5.087774
2.541541 -1.731208 6.583397
1.101596 0.231086 5.914579
-0.984458 1.277432 5.633955
-0.223465 2.011823 5.239293
-0.146308 -0.216450 2.332736
-1.288616 0.109651 5.253678
1.494497 -0.821969 4.809830
-0.454802 -1.127738 3.854449
0.622530 -1.129426 5.508869
-0.227990 -0.876265 3.249667
0.210480 0.602699 5.134671
-0.898543 1.206150 5.412810
-0.336987 -1.541654 5.423698
0.599059 -0.095265 3.342182
1.687454 -0.189362 6.033772
0.572387 -0.480206 3.624864
0.025289 -0.148418 0.464110
2.375689 1.743272 6.329015
0.001291 0.081563 1.617209
1.284500 -0.703661 4.619822
0.211850 0.862883 6.283943
-0.925098 2.683061 4.811805
0.396248 -2.239831 6.053957
1.386066 -2.130510 7.389225
-1.216714 -2.510575 4.860825
4.226031 -0.555901 4.505438
1.654266 1.184451 7.699315
-0.157033 0.065985 0.998063
0.190530 0.562445 2.950241
-1.038810 -2.336572 4.777533
-1.288254 -0.358359 6.176663
1.758088 0.751281 5.878906
1.812491 -0.185589 6.081475
-0.662351 -5.067114 5.437935
3.448593 -1.229455 4.313051
0.200622 0.648877 6.093691
-0.748510 0.779139 4.273604
2.278031 2.385901 3.460302
2.485408 -1.641305 7.541235
1.491881 0.174216 6.007954
0.198933 -2.440943 7.595723
-0.517169 1.532867 4.738150
0.741265 1.520232 5.999065
1.276555 -1.023154 5.935727
2.225716 1.491210 6.299789
-0.628375 0.830008 4.321520
-0.615305 -5.487210 4.783923
0.603910 1.387619 5.108680
0.977100 0.417700 6.867274
-0.453686 0.085001 2.417882
0.307826 0.942863 6.758502
-0.748163 -2.409826 4.927294
-0.693264 1.050327 4.152486
0.157642 0.582263 4.692145
0.498197 1.183330 4.704561
-2.483941 -1.220462 4.523875
0.250871 0.567967 4.849267
-1.603671 -1.140497 7.858389
-0.297401 1.710129 6.881977
0.558855 -1.571215 7.161157
1.869834 -0.321478 6.202833
-0.993696 -1.847700 6.767425
-0.259385 -0.538704 2.507067
1.566679 -0.851512 4.895366
0.119223 0.668454 7.054912
-0.251992 -0.080632 4.463071
0.574247 1.266113 4.660826
-1.923609 -1.885579 6.522600
-0.428271 0.032216 6.023192
0.925500 1.393674 8.207758
-1.940357 -0.789139 4.511475
-2.536685 -4.177172 2.915894
0.182688 0.664388 6.563553
3.723349 1.508982 8.097966
0.775794 -1.592741 5.915278
-0.140337 -0.178872 3.493368
-0.215292 -2.213974 5.079667
-1.732988 -0.857546 8.030342
0.069047 3.575257 6.262399
1.529450 0.588040 5.626283
-1.547781 0.552565 6.069860
-0.290458 0.042058 1.618082
2.469987 -0.710121 5.112102
-0.348494 -0.281187 3.316708
-0.093135 -0.257643 3.048942
1.720794 0.235424 6.733483
0.976445 1.858568 7.717213
3.360445 2.578641 5.569345
1.016338 -2.721797 5.358201
0.836486 0.046879 4.236653
0.629000 -1.114457 5.404824
0.120939 0.618189 6.877835
-0.396265 -1.421455 4.993251
0.728263 -0.899347 4.483782
-1.410852 -0.498804 4.270916
-0.579846 -1.544707 5.195834
-0.154268 0.097160 0.819807
-0.031125 0.071311 1.797556
3.274454 1.328898 7.700297
0.612301 -0.749804 3.986106
-0.014553 0.140811 1.257346
-0.091365 2.832094 5.889606
-1.001441 -0.209588 5.007588
-0.248052 -0.816445 3.348326
0.125477 0.113968 1.212626
1.739508 2.090482 3.862811
1.282533 -1.057289 5.794827
-0.153398 -0.187325 4.344716
-0.065747 3.064976 5.976128
-1.422526 1.554449 7.357891
0.222249 -2.597789 6.014389
2.480108 -0.763124 5.127291
-0.161987 0.075038 0.450200
0.200725 0.859562 6.503974
0.603243 -1.271768 6.196419
0.830505 0.064018 4.240745
0.217778 0.261412 2.494171
3.205788 -1.781857 7.034404
-0.679101 1.448387 6.316266
-0.468229 -1.149907 4.141554
-0.619336 1.543277 4.707194
0.014007 0.135486 1.921221
-0.811235 2.331480 4.734588
-0.812125 -1.645291 5.773936
-0.326778 -0.175079 4.121214
-0.467221 -1.371379 4.546442
-0.005837 -0.078398 1.561038
-0.744126 1.848428 4.696192
4.176734 -0.527376 4.640473
1.109279 0.178199 4.934345
1.267770 -0.966514 5.816864
-1.974429 -3.251720 4.599436
-0.264187 -0.329469 3.685149
-1.665806 -1.632372 6.472611
1.155068 0.130446 4.960801
0.005621 -3.708756 5.379096
0.713635 0.078041 3.765908
-0.079756 0.066229 1.570773
-0.579325 0.474584 2.947122
1.228330 1.227420 9.001620
0.611192 -1.209772 6.096895
-1.622109 1.672196 6.325507
-0.712277 1.000337 4.894665
-0.142381 -0.092749 0.840677
-0.109091 -4.086659 4.501841
-0.181967 2.246621 5.495266
-0.306705 0.014016 5.663215
-0.545682 1.647527 4.853206
1.312487 0.159212 5.602136
-2.877515 2.723055 8.131728
1.544822 1.253219 7.608008
-1.417782 0.160357 5.389773
-0.572507 -5.707654 4.299663
4.277054 -0.510176 4.569381
-0.069477 0.124171 1.638101
0.125824 -0.159390 1.486260
-1.015068 2.903602 4.777881
1.096726 0.349917 6.253286
-0.394302 1.867798 7.514949
-0.132068 0.005859 1.500757
-0.153971 0.151025 1.366686
-1.121030 2.975917 4.712739
-0.635226 0.103039 6.973167
3.268051 2.512300 5.769016
-1.797306 0.337937 5.919260
-2.455987 2.592278 6.914244
-1.203690 -0.402293 4.257980
2.203357 -1.570837 7.156220
3.096016 1.254873 7.539951
0.288118 0.829775 3.464313
0.614675 -1.558298 7.653410
0.193131 0.297876 3.176636
-0.061348 0.164132 0.718492
-1.302020 -0.969003 5.875641
0.770228 -1.549969 5.800435
-1.007373 2.683362 4.753142
2.622111 -0.699716 5.199937
-0.488611 1.655855 4.703920
-0.737286 1.038237 5.023793
-0.680572 0.996290 4.792765
0.729950 -1.004381 4.984062
-0.312844 -2.021685 5.037692
3.950789 -0.606163 4.894403
-1.705734 0.324650 5.745314
-3.551063 0.764103 6.510378
-0.674809 1.448330 6.309757
2.006395 0.197958 7.669102
1.297194 -0.965867 5.804505
-0.034149 -0.299577 1.589822
0.147599 0.124950 1.273152
1.577032 -0.866969 4.835740
-0.059259 4.119859 6.419777
-0.269816 -0.450555 2.629563
-0.171164 -0.047672 0.570030
-0.025768 3.049720 5.952469
1.357475 -1.030865 5.876697
-0.594515 -1.775558 4.595513
0.687948 -1.197046 5.911155
0.267486 0.330421 2.820763
-0.520000 -1.305498 4.161775
0.600507 -1.614554 7.991997
-0.054914 1.958248 7.042618
0.376586 -2.437254 6.203477
-0.672432 -1.576920 5.367111
1.428680 -1.163951 6.186402
-3.371109 0.716229 6.475115
1.697729 0.720554 5.766463
-0.043025 -0.145132 0.539828
1.610891 -1.160136 7.074932
0.245753 0.756592 8.765668
-1.432103 3.848037 4.158128
-0.687784 1.366908 4.472183
0.236624 0.374104 3.847450
0.677508 1.701548 6.528543
-0.257623 -0.123551 3.982210
0.348315 -1.828406 7.423609
-0.217791 0.177244 2.389523
0.437171 -0.467576 3.124354
2.432483 1.064112 6.767770
-0.246307 -1.774246 6.151973
1.283867 0.474448 8.001146
1.310381 1.266259 7.367892
-0.377561 -0.854870 3.494242
3.976781 -0.616280 4.574106
-0.662222 1.351675 4.545852
-0.519595 0.201845 2.718294
1.314513 0.149316 5.696892
2.612440 1.143416 7.040873
-0.432549 -1.518425 5.160687
-0.929108 0.624233 7.922978
-0.691805 -0.140798 3.745210
1.009487 0.427865 7.056782
2.197858 2.332974 3.555714
-0.541539 0.735982 3.792909
-1.537432 0.404424 5.998631
1.402639 0.427208 5.309230
-0.093625 -0.148402 0.460854
0.999182 -0.894677 5.126513
-3.753757 0.857847 6.504466
0.498123 -0.079634 2.489993
-0.579494 2.670052 8.081263
-0.206732 -0.382578 3.366877
1.033690 1.389731 6.789083
-0.643767 -1.708708 4.468340
0.902925 0.726585 8.184078
2.336967 -1.694651 7.341414
-0.168814 -2.445690 5.139391
-0.682128 -1.534607 5.321602
-0.420636 1.918599 7.580321
0.370641 0.751283 3.053553
0.667123 -1.254465 6.082133
-0.150211 -0.542402 2.809257
1.687963 -1.170929 7.240701
-0.099914 -0.494334 2.486404
0.063420 -0.175688 1.711477
2.904685 -2.078833 6.998495
-1.400220 3.801546 4.231914
0.368451 -0.296034 2.412357
-1.728687 -1.685198 6.471404
0.516207 -1.814720 5.845236
1.846485 0.211193 7.192092
-1.622071 -2.787872 4.771791
1.608405 -0.072854 5.882840
-0.922103 0.676359 3.460671
-0.149873 -0.205527 3.068854
0.800060 -0.731064 4.525377
1.464544 0.232606 6.004609
1.047228 -1.754801 6.615416
-0.281038 -0.043627 1.787855
0.541710 -0.079969 2.614271
1.137216 0.211070 5.389769
0.637577 -0.895443 4.674737
-0.056093 0.165340 0.498419
0.038629 -1.860258 5.528570
-3.583496 -1.511996 3.971306
0.330400 0.085343 7.591338
-0.753203 -2.562491 5.141232
0.255913 0.379171 2.613232
0.001879 0.126876 1.424231
-0.547480 0.705234 3.454661
-0.116187 -0.227967 3.015117
1.733468 -1.172795 5.406926
2.354501 -1.041011 6.715654
1.881280 -1.306788 5.768574
-0.792302 0.212941 7.386574
-0.346654 -1.177598 4.125287
3.789274 -1.421249 3.379052
-0.259257 -0.047362 1.698648
0.342246 0.603869 2.781357
1.210653 2.035297 8.728131
0.485379 -3.479979 6.326554
-1.009323 1.282184 5.804455
-0.393540 1.963035 7.624560
0.030619 -0.049641 1.863349
0.561661 -0.163628 2.755359
-2.067858 1.315592 7.533859
0.820666 0.096137 4.252774
1.062328 -0.973812 5.164934
-0.244424 -1.678887 4.568239
1.480632 2.690835 7.352946
0.204983 0.375823 4.213793
-1.255558 3.523567 4.447989
0.137721 0.559537 4.547594
-0.730965 -4.762144 5.561580
-0.562011 -0.001962 2.806581
0.184231 0.175578 1.517701
2.215101 -1.565424 6.231243
1.132988 0.306360 5.014269
1.145088 0.102325 5.044943
0.150086 0.499931 5.467196
-0.029168 0.804519 8.589514
0.116246 -1.951956 5.562785
-0.717350 -0.157131 3.827254
3.457555 -1.045389 4.295531
1.137273 0.142706 4.841666
-0.654608 1.648281 7.395100
-0.662616 0.141231 6.859700
-1.448158 4.041906 3.867023
0.461610 0.976171 7.149278
0.187069 0.640576 5.668101
-0.329720 0.254387 2.736897
-0.644358 -5.295813 5.262349
0.302204 -2.010313 7.524552
0.053563 0.456128 2.939044
0.805997 -0.745208 4.133287
0.389469 1.084191 4.115820
-1.366111 -0.460764 4.335492
-3.268390 -2.735417 5.925464
0.454243 -0.157516 2.758028
-0.595503 0.066470 6.699274
0.189527 -2.597230 6.059614
-0.275292 0.018139 6.007950
-0.373989 -2.051823 5.174956
0.854912 -0.866242 4.748066
0.290655 -0.228971 2.096752
-2.298837 -2.077934 6.504879
-0.091269 -0.121126 1.240318
-0.227147 -0.310303 4.112058
-1.513895 0.364628 5.927580
-1.283721 1.370786 5.946070
0.112940 0.295767 2.723369
0.117045 0.528207 4.071901
0.473027 0.003928 2.867839
-1.385936 -0.046029 8.105734
-1.793640 -0.590686 8.378765
1.674670 0.220839 7.479389
-1.490159 -0.558786 7.625064
-0.251113 -0.093269 4.306127
1.384938 -2.151099 7.435524
0.045293 -0.153949 1.718269
0.204868 -0.034223 2.197077
0.415097 -2.469323 6.232688
-1.416263 -1.729022 6.426214
-0.600473 1.003075 4.106090
1.006906 -1.773741 6.664928
-0.825540 -2.415366 4.974626
-0.160143 0.088719 0.642564
-0.751439 -2.054293 4.721151
-1.664241 -1.879765 6.539614
0.196423 -0.219334 2.074505
-1.527289 -0.729670 7.751455
-0.232881 0.178173 2.427415
-0.617185 1.691831 4.731421
1.122850 0.318466 6.098866
0.243770 -1.833859 4.248592
-2.049950 -3.503732 4.445679
0.824684 1.807258 6.864398
-2.239639 1.961878 7.855793
-0.322194 -0.206688 3.598802
-1.692561 -2.050198 6.693112
1.410464 0.557299 5.499165
0.507242 -2.651881 6.262499
-1.932931 -0.839396 4.489596
-3.150658 -1.400217 4.319639
-0.241898 -0.035347 6.281170
-1.487409 1.637489 6.271276
2.422740 1.106978 6.818691
-1.628496 0.787023 6.505621
-4.864853 0.995353 5.825158
-0.824682 1.154878 5.306379
-0.782755 -2.481362 5.089820
0.114286 0.583461 6.095206
-0.495498 -1.505673 4.424535
1.784289 -0.888877 4.960176
-1.258850 1.512822 7.932847
0.801289 -0.039516 3.607920
2.011135 -0.635556 6.401464
1.264698 -2.008570 7.247711
0.398103 0.893027 3.482119
0.349681 0.742599 9.097376
-1.336449 0.372486 8.660166
-0.415275 -1.401839 4.770458
1.750360 -1.172708 5.532838
0.131495 0.043135 0.645198
0.406361 -0.230387 2.203483
1.745540 0.846588 5.979793
-0.525143 1.526164 6.583573
-0.180114 -0.123957 4.714927
-3.325331 -1.453926 4.212088
0.831752 -2.759765 4.334839
-0.025756 0.121013 1.648467
1.003167 0.437503 6.793266
-0.359040 0.294141 2.844851
0.002728 -0.049375 6.996707
-0.060114 0.174169 1.487958
-1.142561 -0.458012 5.396366
1.253057 -2.418934 8.329744
-0.071974 1.363249 7.010347
2.063667 0.993576 6.284795
-0.673837 1.181092 4.242864
-3.266186 -1.939382 3.592414
-0.401890 0.150152 2.073072
1.542589 1.847290 4.001907
2.323706 -0.749691 5.155849
-0.200766 1.596107 7.245760
-0.433954 -1.063341 3.652105
0.831084 -0.877305 4.464760
-0.721941 1.923133 4.662798
0.664607 -1.110938 5.729360
0.103190 0.513119 3.844748
0.594313 -0.445936 2.984541
0.240065 0.670343 6.053652
-2.132131 0.484721 6.075399
-0.830407 -0.133304 3.992090
-0.569822 1.258549 4.361328
-0.740085 1.119322 5.186280
0.770595 -0.833925 4.516434
0.289120 -0.162307 2.457190
0.290256 -0.247710 2.502372
-0.271446 -1.663381 5.329352
1.666041 -1.055978 5.343375
0.287949 0.370644 2.504189
2.315893 1.600146 6.349812
-0.091814 -0.295247 3.098436
-2.247594 -3.479802 6.073621
-0.253395 -0.109877 4.123865
-0.231562 -1.578366 4.413762
-1.107290 2.976004 4.678369
1.076105 0.350473 6.171175
-0.372507 -2.029549 5.140772
1.397467 2.176707 7.168728
-0.632595 1.625495 7.113888
2.290025 1.623972 6.306590
-3.527626 -1.496525 4.047557
0.234484 0.565133 5.911001
0.022096 0.154102 1.257291
-0.488776 -1.243248 4.343045
-0.324191 -0.229833 4.505933
-0.019235 -0.150600 1.322722
3.448325 1.402858 7.845297
2.938041 1.236836 7.389485
-0.510603 -1.334536 4.159075
0.501429 1.052316 7.323109
0.470186 -0.123244 2.356517
0.998432 0.114926 4.791344
-1.735411 -0.846918 8.054569
-0.393944 0.460610 2.932299
2.651762 -1.269689 6.895963
-0.224681 1.787225 6.953415
-0.928410 1.173828 5.330744
-1.484549 -0.502580 7.358700
1.692666 -1.076210 5.226853
-1.410133 1.533416 7.338467
1.619825 1.206346 7.651167
-0.989461 -0.226338 4.514051
-1.310399 0.039494 8.037919
0.035553 -0.160952 1.518756
0.573362 -0.141164 3.109280
0.104295 0.732861 8.241219
-2.828599 0.601494 6.359184
0.602176 -1.178932 5.889610
-0.288564 0.211842 1.983038
0.271117 0.469109 3.163852
-1.474182 4.087310 3.832940
-0.785306 -2.820871 5.207256
-0.232046 -0.296756 4.240687
4.235041 -0.540439 4.451958
-0.166779 -0.202958 2.315810
-0.414808 -2.059856 5.251590
0.643128 -0.922431 4.711095
-0.439991 -1.128539 4.197118
-0.267410 -0.336641 3.579568
1.945439 -1.389785 5.800482
0.149456 -2.646273 6.044756
0.075949 0.477949 3.194908
1.374852 0.549607 5.353288
-0.454431 -0.311522 3.546115
0.925162 0.589620 7.857831
-0.210923 -0.412628 3.118111
0.028314 0.101935 1.510920
-0.932543 0.069202 7.430073
0.635843 -0.451115 3.100415
-2.388616 1.326106 8.246911
0.190727 0.883914 6.331134
1.531569 -1.239279 6.212139
0.369151 -0.035087 2.558876
-0.527542 1.859638 7.196513
0.481150 -0.029585 3.020496
1.364213 1.393009 9.389174
-0.269774 -1.568232 4.430495
0.440935 -0.231827 2.286241
0.436426 -2.979777 5.798214
-0.718755 0.970577 4.872227
-0.456479 -0.307137 3.573816
-0.704883 -2.820834 5.240305
1.181008 -0.991685 5.644854
2.353156 2.426368 3.297101
-0.171602 -0.006905 1.365922
0.779496 1.769387 6.933376
-0.769588 1.173002 5.265881
-1.312894 1.396723 5.984917
1.608048 1.947914 3.972218
-0.126286 0.067991 2.036097
0.119106 0.634425 6.849053
-0.928818 0.291999 8.091929
-1.811145 0.331856 5.925179
3.730726 1.503222 8.087190
0.180142 0.680012 7.128516
0.535502 1.101151 4.450189
1.592868 0.659742 5.745951
1.116184 0.310812 6.212872
-0.827124 1.065297 5.214344
0.113328 -0.004450 1.587153
-0.234733 0.124066 1.563104
2.690758 -1.837265 6.723724
1.254984 0.159302 5.450977
0.880861 -0.880038 4.497776
-1.042516 0.064188 7.710151
-0.747144 0.835759 4.088325
-0.258526 0.074178 2.377583
-2.151974 -3.651390 4.287180
0.767966 -0.796189 4.553955
-1.481627 0.370165 5.745400
2.027803 -0.262321 6.157713
3.536285 -1.012115 4.029365
-0.709334 -0.057178 3.293370
-0.808390 -0.204873 4.145259
0.155452 0.535846 2.800926
-1.788706 0.987858 6.998413
1.601868 -0.868728 4.843868
-0.111649 0.063869 1.994078
0.555741 1.388096 5.281225
-0.800735 -1.598998 5.824319
1.190275 -3.057714 4.829770
0.656773 1.072528 3.665267
-0.128125 -0.061077 6.340302
0.174909 0.399524 2.664355
-0.648397 0.016113 3.001691
0.207778 0.513371 3.189725
1.693369 -1.126184 5.417284
2.830069 -1.991789 6.881098
0.245524 0.913756 6.473867
-0.664899 -5.290538 5.289343
-0.314098 0.021499 1.706070
2.741119 1.170930 7.213807
-0.681983 2.130539 7.954810
-0.824714 1.107300 4.980517
2.079520 -1.484568 6.026320
0.161539 0.532927 2.812582
1.530482 0.187864 6.283994
-0.487349 -1.209385 4.254923
3.520620 -1.025934 4.114449
2.476962 -2.600297 6.714190
2.219832 -0.827463 5.123992
-1.363894 -1.224926 6.127887
0.129225 0.701598 7.305533
0.289765 0.653680 3.214287
-0.069295 -0.018677 6.871204
0.063339 0.299117 2.568253
0.150932 -0.132906 2.102746
0.312904 0.033037 2.089180
0.200004 -2.086661 5.576750
-1.095456 -0.075362 5.050791
0.205650 -1.756311 4.214554
0.348953 0.600954 3.078793
-1.285742 -0.797250 5.755383
0.220357 0.406067 4.457468
-0.440440 0.078065 2.260621
-1.682961 -3.551564 6.899528
0.853847 -0.833400 4.761385
-0.000599 -0.103173 1.673486
-1.045768 1.011645 8.053570
0.588653 -0.541881 3.791521
-0.165422 -1.835430 6.557260
-1.540746 -0.545214 7.569026
0.917911 -1.621750 6.240577
1.149699 -0.874741 5.287433
-1.363249 -0.412717 6.431359
-1.058381 -0.222787 4.750368
1.269981 -1.046064 5.875719
-0.455342 -1.132587 4.138137
-0.231703 -0.055374 5.732870
-0.155838 -0.194463 3.162012
-0.630893 1.564106 4.649390
-0.536089 1.466452 4.546397
0.590512 -0.168445 2.931269
0.272161 0.450745 3.906352
0.126306 0.710884 7.389927
-1.020154 -2.227248 4.768536
0.669750 1.674921 6.359436
-2.150006 0.500871 6.109927
3.345896 -1.110266 4.556980
-2.060435 -3.447927 4.505289
0.116585 0.351480 2.536063
-0.330977 -1.538918 5.316683
-0.158414 0.029360 6.366606
-0.130640 -0.187315 3.408914
-0.706444 2.119979 8.006344
0.759229 1.889432 7.330703
-3.321240 -1.877126 3.587596
0.400062 1.036914 3.786370
1.737653 0.191208 6.711870
0.602616 -1.265841 6.298294
-0.787582 -0.019649 3.622168
2.954498 -0.609000 5.211471
1.387619 -0.745743 4.766088
-0.697427 1.242006 5.801120
-0.711189 0.846372 3.989992
3.132328 -1.043630 4.821043
0.116417 0.458166 2.356689
0.226225 -0.191618 1.844829
-0.887359 0.354841 7.997378
-0.106036 0.020452 6.476860
0.115544 0.643899 7.467671
-0.177804 2.203637 5.345938
2.222970 1.376640 6.303378
-1.524924 4.237552 3.362712
-0.736768 0.824200 4.026267
-0.531301 1.419641 4.535335
-0.865425 -0.164461 4.509017
-0.112644 1.356590 7.116932
-0.832390 -2.315106 4.932050
-1.456210 0.345174 5.712182
-1.686172 -2.131596 6.750387
0.148398 0.699964 7.344465
0.172011 0.566711 4.132501
4.220631 -0.536859 4.618296
-1.249746 0.878228 3.547970
-0.298944 -0.786661 2.955789
1.297893 0.192735 5.742296
-0.781014 -4.029299 5.645051
3.089270 -1.694542 7.021580
0.127970 0.657742 5.988858
-0.707045 1.198469 5.525595
0.218196 0.307253 3.030854
-1.539756 0.522109 6.015379
1.124269 0.209255 5.789677
-0.630127 -1.650077 4.568154
-1.064990 -0.298431 5.390270
-1.478107 4.062827 3.788692
-0.841285 2.201006 4.797869
2.391459 -0.800929 5.154537
0.517793 1.320634 4.963912
-1.709840 -3.166464 6.948975
-0.766657 1.269329 5.679626
0.139125 0.358163 3.824020
0.355361 0.057345 7.578807
-0.183206 -0.479185 2.757858
0.124463 0.655987 5.862009
-1.763733 -2.963300 4.769913
0.682024 -1.527556 5.710209
-0.280686 -0.326451 2.298988
1.883394 -1.408108 6.768254
1.425758 0.560145 5.513500
-0.139485 -0.284559 3.844923
-0.020054 0.164208 0.331256
-1.430616 0.465385 8.978419
-1.182990 1.360238 5.784347
1.296644 2.217178 6.983629
0.783560 -1.494412 5.828048
-0.234547 -0.040129 2.027000
-0.198962 2.299290 5.534136
-0.115567 0.161880 1.427230
-1.603718 0.828386 6.577772
-0.528506 1.842515 7.153260
0.569215 -0.371168 3.298185
0.349683 -0.079317 2.627071
-2.540760 -4.145324 3.354956
1.505726 -1.088517 6.452929
0.315705 0.605319 2.717669
0.766656 -0.686095 4.018940
0.996238 0.128438 4.358978
0.782679 -1.496812 5.869122
-1.823721 1.090176 7.141438
0.009900 -0.127169 1.327532
2.595336 -2.188331 7.519693
1.108786 0.096479 4.839883
-0.528220 0.117865 6.449015
0.289604 0.410772 2.481378
-0.775462 -3.292000 5.498123
1.572141 -0.795125 4.854418
-0.971164 0.741064 3.515621
0.236060 0.957432 6.561162
-0.029983 -0.401455 2.358983
0.486596 -0.475171 3.412441
2.168807 -0.783786 6.570354
-0.645315 0.803433 4.140369
-0.825738 0.272410 7.576522
-0.301836 -0.335216 2.628321
-0.724324 -0.096832 3.408589
1.315438 -0.852886 4.647782
-0.282034 -0.109784 5.765108
0.024272 0.005677 6.907695
-0.253665 -0.111122 4.109893
0.569351 -0.242628 2.801858
-0.952324 1.154405 5.655743
1.671237 2.446388 7.099821
-0.263738 -1.901423 4.843519
0.607719 1.275146 4.800532
-1.793287 0.350871 5.919128
0.848753 1.493144 6.078360
0.537437 -2.762652 6.342306
2.264353 -2.493255 6.649200
-1.512643 0.574444 6.142851
2.434985 -0.710099 5.121264
0.609017 -2.419312 4.356004
0.116758 -0.033080 0.880702
-0.078991 -1.816372 5.473273
2.200033 -0.870209 6.651945
0.110579 0.497219 5.165473
-1.713357 -2.932769 6.924251
0.974015 0.431566 7.668606
-0.421061 0.381186 2.623925
1.922118 -1.948307 6.707119
1.752370 -1.051308 5.410005
1.044500 0.320174 6.131249
-0.711515 0.665289 3.787817
0.209636 0.676944 2.893324
0.669155 0.147303 7.764122
-0.787452 1.018602 5.129877
0.698803 -0.622874 4.066007
1.881220 -1.190426 5.568980
-2.424745 -3.999724 3.796130
-0.741599 0.002536 3.415192
3.342901 -1.885991 7.009942
0.622956 1.444965 5.337700
-1.070992 -0.333922 5.300107
1.193899 -3.027772 4.920413
-0.325390 0.206261 2.514362
1.896529 -1.206988 5.603064
0.092310 0.460265 2.357456
-1.054478 -4.647946 5.753612
0.223135 0.976405 6.543737
-0.115666 -0.273171 3.590784
0.664280 -1.033470 5.013440
0.602771 -0.639936 3.986785
1.745409 -1.157723 5.374239
-0.666105 1.406954 6.364279
-0.109945 -0.281896 3.481324
-1.395214 0.144093 5.348920
-0.067561 -0.334322 2.693215
-0.149700 0.104500 0.878364
0.869719 -0.013970 3.979605
-0.288620 -0.252065 2.941110
0.955498 -0.860582 4.994313
-3.242675 -2.711753 5.964818
1.174373 1.480263 3.981586
-0.799903 -3.364667 5.468976
-0.369700 -1.267491 4.415972
-0.099880 -0.251043 2.888099
-2.777882 1.440757 8.992244
0.660194 -0.436109 3.171040
-2.264167 -3.809007 4.093166
3.750347 -0.462138 4.968156
0.193518 0.537408 3.665184
-0.766853 0.103413 7.226811
-0.372214 -1.251970 4.130794
0.199054 0.576352 4.586125
-0.772779 -4.326890 5.615459
-0.951052 0.058340 7.514719
-1.578424 -1.538964 6.425191
-0.140883 -0.416413 2.981063
-0.745139 -2.403799 4.930333
0.028269 0.024234 7.297988
1.357179 -1.025021 5.865770
-0.264253 -0.446042 2.436012
-0.222457 -0.187487 1.952218
-0.330982 -0.157650 4.518385
0.627427 -1.499994 7.356986
0.673195 -0.480868 3.600758
-1.735091 -2.788220 6.919998
-0.470168 1.707355 6.872377
-1.098822 -0.315626 5.096909
-0.413884 0.423918 3.115644
0.433338 -0.442277 3.233795
0.231635 0.629580 5.809185
0.749223 -0.866892 4.428496
0.425967 0.904831 3.582856
-0.390825 -1.013121 3.487799
0.676051 -0.126543 3.250747
-1.640105 -2.063708 6.700043
0.330128 -2.224591 6.083412
-1.098253 0.059545 7.758542
-1.109109 -0.340628 5.218170
0.136249 -2.557355 7.609434
-0.257715 -0.451486 2.378388
3.384996 1.402664 7.810503
0.101736 0.091159 0.712958
1.229487 -2.353935 8.142194
-0.493979 1.667679 6.884386
-0.399923 -1.408495 4.939649
-0.155900 -0.061946 6.198870
-0.350670 -0.151757 5.247029
-0.565682 0.770969 3.708591
0.633178 -0.992792 4.995702
-2.478192 -1.190671 4.479464
0.275336 0.426588 3.183491
-0.931649 0.377167 8.044243
0.380021 -0.224958 2.537646
0.124927 0.523287 3.594918
-0.603162 1.597607 4.740045
2.304865 -1.597686 7.287283
-0.241996 -0.895910 3.376836
2.122234 -1.516363 6.063625
2.634742 -1.811993 6.628358
1.386192 0.538234 5.457453
0.130406 0.708414 8.073543
-0.736347 0.161963 7.249752
2.273413 1.020809 6.584721
-0.169171 -0.679714 2.954877
-0.465071 0.000895 6.120589
-0.650418 2.111442 7.860881
-1.417008 3.945825 4.021496
0.720073 0.073093 3.438353
0.519764 1.176246 4.711532
1.172430 -0.891175 5.377178
0.748871 -0.710025 3.914846
0.180964 -1.677494 4.214614
0.492744 0.966187 3.984498
-0.396854 -1.248519 4.493945
-0.075435 -0.378615 2.890417
-0.472354 0.325627 2.483939
0.421993 2.893816 7.183074
-0.407512 0.165296 2.759554
1.374025 -1.049871 6.233973
-2.532374 0.522845 6.305995
-0.227550 -0.333649 3.839037
-1.066247 1.249524 5.759471
0.880243 1.254326 8.049837
-1.423850 -1.178870 6.148935
0.129537 0.635477 5.764234
0.658177 -1.109920 5.081113
-3.043234 -1.416628 4.366448
-0.657144 -5.350108 5.123669
0.767126 1.186668 7.819364
-1.523240 -2.696100 4.859723
1.032973 -1.826486 6.761775
0.683279 -0.983737 4.811934
-0.241667 1.591278 7.274412
-0.082069 0.170447 1.709738
-2.045083 -3.737282 6.541664
-0.200828 2.285589 5.407574
1.709447 -2.282358 7.690707
-0.951007 -0.150709 4.712513
-0.256705 -1.046661 3.668349
-1.459604 -0.528549 7.289456
-1.326214 -2.575456 4.884096
1.587574 -0.876809 4.947807
-0.511551 0.685339 3.562629
0.415954 -2.491126 6.241612
-0.514631 0.168467 2.804625
-0.086781 0.128078 1.556410
0.250274 -0.049556 1.587722
-0.742005 -2.482157 4.981528
0.537152 0.017953 3.103580
2.696025 -0.917274 4.980710
-0.362341 -0.081675 5.784733
0.794491 -0.754554 4.172052
0.602914 -1.312569 6.366300
-0.210570 -1.774587 6.127980
0.109152 -2.019971 5.565065
0.597361 -1.265945 6.234039
0.158533 0.815797 6.235808
-1.877330 -0.821262 4.537291
0.732324 -0.713493 4.317525
-0.623116 -5.479921 4.805071
-0.588502 1.257582 4.315359
1.383361 -1.035541 5.967974
0.427358 -2.436631 6.166533
0.615909 -1.230312 6.219908
-0.899686 0.495100 7.773090
0.713057 -1.115246 5.524754
0.657185 0.024952 3.157013
-0.744614 0.745025 4.049001
0.581417 -0.040398 3.008268
1.138308 0.186371 5.652495
-1.496297 -0.609335 7.629270
3.246692 -0.533569 5.157028
-0.704486 -1.948083 4.704456
-0.712394 -4.746200 5.606334
-2.244766 0.449313 6.130965
0.108641 0.646046 7.453332
-0.645277 0.912397 4.027444
-0.041652 0.062993 1.814878
0.196321 0.357223 4.035948
-1.229816 1.355966 6.482160
0.205265 0.324487 3.448561
-1.170027 -0.346286 4.122221
-0.149651 0.112871 2.146109
-0.322000 -0.221249 3.751731
0.235198 0.328425 3.174372
0.259628 0.528479 4.875982
0.607087 1.297891 5.149216
0.043802 -0.068471 1.885709
0.422566 -0.045616 2.399458
0.119404 0.597957 5.352993
-0.281671 -0.312540 3.788093
0.200064 0.345735 3.821770
0.382965 -2.169639 6.017730
1.500365 -2.216166 7.540016
-1.659457 0.268008 5.732187
0.042014 0.401685 2.196603
-0.357800 -1.231685 4.287215
-0.024090 -0.052483 1.637501
-2.400473 -2.104459 6.466600
3.073151 -0.501915 5.180425
-3.284980 -1.946686 3.540956
-1.034440 2.766028 4.771603
1.031236 0.304893 6.369912
-2.706724 -1.328635 4.408726
-1.365534 1.523406 7.072320
-0.169237 -0.045819 0.861988
-0.473914 2.225209 7.764274
-1.166813 1.381186 5.898433
0.963751 1.470811 8.297650
-2.006509 1.348819 7.470702
0.979505 0.478318 7.560353
0.600382 -1.257311 6.167302
-0.749619 -2.604685 5.060501
0.559810 -2.785946 4.126062
-1.487676 -0.562648 7.636421
2.460322 -1.087784 6.790368
-0.006182 0.168982 1.977285
-0.565861 -1.686400 4.553318
-0.784958 -4.061514 5.652673
-0.055366 -0.360194 2.571340
0.491264 1.213562 4.380391
0.235787 0.593109 5.664920
1.375776 0.549701 5.420017
0.321730 0.648060 2.804994
1.178986 1.484727 3.948021
0.187294 0.921555 6.400833
-0.117442 -0.049116 1.727627
0.216018 0.294033 2.835293
1.152059 -0.933931 5.179496
-0.082176 -0.309807 2.901903
-0.221928 -0.249220 1.792041
1.535195 -1.288695 6.253335
-0.344759 -0.043628 5.219303
0.130925 0.535526 5.809447
0.062889 0.364029 2.895573
0.703305 -0.871902 4.830951
0.612635 -0.573843 3.236180
-1.891289 -0.771290 4.539148
-0.857249 -1.675976 6.181346
-1.485634 -0.519363 7.512702
0.646407 -0.560415 3.308813
-1.144344 1.386077 5.827766
0.807368 1.467908 6.073421
0.981733 1.580866 6.414793
2.346664 -0.769905 5.160898
0.001360 0.160992 0.902094
-1.298589 1.489944 6.879365
0.575886 -0.128086 2.683228
1.982566 1.056587 6.196751
-1.176722 -0.275896 5.528498
3.322972 -1.156171 4.539021
0.811411 -0.759511 4.594467
-2.035533 1.324954 7.429385
1.962502 1.088145 7.834699
-1.228957 0.138394 8.145233
0.364012 0.980870 3.650043
0.638611 -0.082422 2.889499
-0.678122 0.163116 6.983116
1.162474 -1.957407 7.114850
1.662387 -1.132182 7.196443
2.167456 1.036634 6.512539
0.638597 -1.307133 6.534109
0.697437 -2.508479 4.366616
1.146064 -0.685608 4.464498
1.654842 0.173546 6.542878
-0.406972 0.030542 2.268231
-4.273681 0.949093 6.346182
0.676652 -1.494815 5.769739
-0.123097 -0.193259 2.200905
-0.151173 -0.195909 4.309253
-1.445285 0.149734 5.527838
3.329053 -1.102921 4.593420
-0.635727 -5.411006 5.005830
-0.412304 -1.348366 4.442139
0.439737 -0.005089 2.691143
-0.632434 -1.543978 5.427124
-0.234279 -0.183465 1.897551
0.114861 0.090813 1.201732
3.143694 -0.461410 6.031188
0.124184 -1.630414 4.154313
-1.108650 1.656168 7.837462
0.645842 -1.642866 8.443517
0.792318 0.117213 3.802127
-1.707650 -1.263136 7.852169
0.645421 -1.462006 5.603738
-2.673561 -1.310377 4.427762
-0.136280 -1.274727 3.963127
-0.456416 -0.022857 6.220596
0.533036 3.148281 6.920695
0.536928 -2.765906 6.288136
-2.260326 1.923467 7.834544
-0.774217 2.067880 4.808960
-1.190398 1.406017 5.850251
1.396946 -1.063069 5.981921
0.284171 0.840912 3.449014
-0.322885 -1.112301 3.908926
-1.666348 -1.504279 7.222079
-1.158151 -0.361953 5.421898
-0.065983 -0.111188 1.471567
-0.707847 1.249981 5.881210
-0.140482 -0.042016 6.243336
0.589950 -0.291786 2.985633
0.125087 0.463490 2.198493
-0.393019 1.781404 4.895341
-0.470160 0.117259 2.274940
