-0.113180 0.096757 5.189844
-0.113895 0.095997 2.269515
0.292198 0.052137 1.260445
-0.025936 0.394579 0.243133
-0.654778 -0.429704 6.644385
-0.324138 -0.338790 2.508395
-0.122822 -0.603424 3.423058
-0.322995 -0.344330 3.834672
-0.081606 -0.228094 3.333985
-0.407010 1.218501 6.342453
-0.143815 -0.191306 5.352307
-0.360000 -0.153784 2.409723
0.007989 0.033776 2.823482
0.272508 -0.151097 2.170726
-0.211151 0.014847 1.858209
-0.111656 -0.241877 1.039404
0.293858 0.090049 0.915707
-0.385830 -0.252750 2.508677
-0.180565 0.240152 1.900629
0.091389 -0.173339 2.576759
0.238332 0.202236 1.239757
0.179444 -0.215600 1.066786
0.148616 -0.285768 2.080175
0.067440 0.495683 3.669100
-0.087210 -0.219589 4.676662
0.216490 -0.099176 3.036036
-0.664328 -0.248940 6.422614
-0.435558 -0.596584 5.610554
0.188850 0.184041 2.079261
0.417871 1.241504 8.238649
-0.031095 0.140382 3.596550
-0.271962 -0.129815 1.947719
-0.493352 -0.361693 6.524271
-0.224403 0.109976 5.464129
-0.638525 -0.213463 5.092053
-0.255898 1.094759 5.896597
0.393672 0.578690 6.588315
0.038167 0.314008 6.543882
0.292968 -0.088647 2.504051
0.172286 0.014452 2.229416
0.143793 0.289515 5.679877
-0.118989 -0.359137 2.405826
0.021064 0.177239 2.673925
-0.233850 0.360501 4.492663
0.177267 0.235707 1.022947
-0.083286 -0.008018 3.946718
-0.061181 0.158462 3.104293
0.031338 -0.043308 2.769692
0.062326 0.360219 0.204208
-0.190736 -0.154187 3.554469
-0.070940 -0.278571 4.197600
0.010486 0.471945 6.929244
0.080927 -0.322089 4.140222
-0.524875 -0.501900 5.185991
0.030115 0.384904 3.073554
-0.090151 0.111040 5.032635
-0.242766 0.207786 2.040646
0.023283 -0.044457 5.355365
-0.212954 0.147050 2.360517
0.307503 0.091981 0.627283
-0.050805 0.058036 2.733433
-0.167720 0.129380 2.297147
0.149251 -0.359220 3.899887
-0.535246 -0.125976 4.372543
-0.038015 0.498458 4.846416
-0.263984 -0.101742 3.546161
0.073624 0.361451 3.328745
0.016034 -0.255549 2.652196
0.241477 0.219524 1.053681
-0.154268 0.280117 1.967726
-0.354168 1.094266 5.897351
0.060228 0.470356 3.532222
-0.025429 -0.048729 4.248619
-0.480547 -0.668737 4.995202
-0.342761 -0.042106 1.212999
-0.317489 0.073357 4.874601
0.170362 0.092452 2.190696
-0.521191 -0.190677 4.236205
-0.116815 -0.269108 1.256754
-0.140048 0.074230 5.143953
-0.340304 0.931957 5.672693
-0.689437 1.086360 8.164389
0.119265 0.229235 3.779730
0.154975 0.109113 1.875119
-0.304310 -0.249773 2.058160
-0.596406 -0.186405 6.403931
-0.203840 0.284718 2.123570
-0.275365 1.198357 6.143313
-0.469794 -0.335925 6.457841
0.116328 -0.375122 3.396312
0.162088 0.305649 5.877697
0.290461 -0.177758 3.225179
-0.344711 1.001743 6.040970
0.391424 0.531387 6.309025
0.123317 -0.118891 3.847909
-0.108852 -0.261886 2.876776
0.110725 0.253353 3.694946
-0.038067 0.077110 4.309572
-0.074469 0.033439 4.716112
-0.550253 -0.210659 4.787588
-0.208665 -0.170197 2.159478
0.288261 0.041036 2.265777
-0.349590 -0.155979 3.957102
-0.330116 0.099008 2.518541
-0.185956 -0.246113 1.671463
-0.970939 1.476746 8.151225
-0.498784 -0.655330 4.933075
-0.065781 0.056085 2.839261
-0.417351 1.432704 6.715675
-0.558980 -0.355126 4.288998
-0.221040 -0.026353 4.243712
0.146891 0.277601 0.167829
0.417829 0.010726 0.093184
-0.110065 0.099001 5.180768
-0.065748 0.456064 4.999676
-0.303601 -0.106916 3.972331
0.130908 -0.080041 2.770673
0.066961 0.170831 5.948045
0.177162 -0.052978 2.113174
-0.127486 0.177610 2.118892
-0.503238 0.623389 6.529934
-0.337757 -0.332006 6.283069
-0.059468 -0.202964 4.456912
0.174958 0.351067 5.879693
0.040877 0.543962 3.967588
-0.119438 0.085338 4.937735
0.318208 0.490611 6.178662
-0.354224 -0.058858 2.505720
-0.181411 -0.352100 2.432941
-0.222624 -0.151025 2.773245
-0.368686 0.153876 5.165136
-0.634398 -0.689635 6.976292
-0.326857 -0.089042 6.044166
-0.192101 -0.249027 3.402176
-0.057301 0.501710 4.996734
-0.204463 0.215107 0.259465
-0.445348 -0.307079 3.129613
0.260002 -0.132806 0.738854
0.298566 -0.036322 2.617567
-0.473766 0.379941 6.401182
-0.053488 0.152254 2.086163
-0.115592 0.085527 5.002035
0.178343 -0.155087 1.646933
-0.143249 0.289256 1.034609
-0.060743 -0.308662 3.060150
-0.228406 0.147932 1.385492
-0.286008 -0.005065 5.830830
0.203305 -0.025818 2.945978
-0.179648 0.028767 2.193526
-0.106185 -0.205912 4.910079
-0.137969 0.076066 4.377471
-0.274167 0.045369 1.525737
-0.250088 0.191824 5.305052
-0.046235 0.158025 3.551631
-0.113110 0.096085 2.237554
0.256796 0.136960 1.492568
-0.246562 0.135431 1.030718
-0.242645 0.557484 4.323185
-0.465195 -0.656896 3.863863
-0.055731 -0.005682 4.472789
-0.363577 -0.021508 0.897845
-0.444823 -0.264809 5.167301
-0.236422 -0.019846 3.103080
0.233314 -0.159333 1.173127
-0.268753 -0.035325 2.810611
-0.294161 0.658049 4.933940
-0.540480 -0.714161 5.367614
-0.083626 0.272565 4.217279
-0.311883 0.027910 3.181011
-0.291193 0.197776 3.192669
-0.045092 -0.204110 3.072376
-0.112029 -0.534752 3.646359
-0.498667 -0.461817 4.765258
0.103541 0.428594 3.791146
0.206535 0.014401 5.336624
0.395555 -0.028572 0.172096
-0.384099 1.348409 6.545525
-0.334678 -0.467954 4.994180
-0.066119 0.570857 4.257444
-0.617464 -0.668321 6.837028
-0.258626 -0.178789 6.117935
-0.209752 -0.144102 5.928033
-0.096741 0.121780 1.904362
-0.253720 0.168435 0.211751
0.139756 -0.036946 4.041000
0.065092 0.272612 1.032225
-0.163129 0.237587 2.338177
-0.266646 -0.117134 1.164949
0.160477 0.207539 6.085542
-0.103729 0.060017 2.606374
0.279112 0.150062 1.101558
0.242468 0.129924 1.626793
-0.387956 -0.150548 6.126415
-0.295044 0.089747 0.902231
0.124048 0.369262 6.506807
0.246017 -0.175082 0.223951
-0.153141 0.128085 4.904608
0.204963 -0.374076 2.220194
-0.323165 -0.250245 5.997458
0.063332 -0.392818 2.828344
-0.305834 0.034427 2.169402
-0.483897 -0.317266 3.916397
-0.620297 -0.706763 6.881341
-0.120408 0.053598 5.139851
0.301284 0.211964 5.923870
0.182791 -0.219698 1.315119
-0.560457 -0.667710 6.908556
-0.009626 0.348026 1.130887
0.095560 0.171130 1.867299
-0.002856 0.053189 4.088470
0.568146 -0.099180 5.256343
-0.131914 -0.266291 1.787689
-0.151753 -0.028133 5.055650
-0.238537 0.198840 4.884448
-0.386024 -0.498213 3.228854
-0.130389 0.075248 3.442668
-0.302979 -0.141848 3.264224
0.021469 0.073475 3.271607
-0.231391 0.656011 4.918795
0.035895 -0.288479 1.421398
-0.307298 -0.116726 3.835778
-0.163293 0.025537 2.172216
0.069582 0.020358 4.644635
0.341825 0.056168 0.999525
-0.580461 -0.336351 4.422783
-0.099422 0.053364 2.654934
-0.451032 -0.163786 3.740488
-0.157572 0.303564 4.399178
0.044693 -0.211993 4.680530
-0.548498 0.727143 6.813704
-0.686786 -0.141687 6.223132
0.159345 0.306179 6.148938
-0.139807 -0.181360 1.481592
-0.248246 0.166881 5.574567
-0.170725 0.043543 2.463716
-0.134917 -0.043288 3.551339
0.298118 -0.213505 3.623003
0.083969 -0.015573 2.500284
-0.039560 0.576519 4.784011
0.092688 0.443345 4.059875
-0.325106 0.064390 0.814587
-1.575880 -0.251369 6.762554
0.181571 -0.405664 3.062553
-0.050048 -0.003794 4.754689
-0.220652 0.355432 4.336785
-0.691944 -0.600143 6.428919
0.006146 -0.080140 4.512500
-0.118711 -0.121749 2.823573
-0.322213 1.625366 6.921408
-0.271382 0.020357 2.433047
0.082647 -0.317827 1.283607
-0.393897 1.034801 5.981730
0.263770 -0.194711 2.657431
-0.187352 0.183755 3.868140
0.050116 0.036090 4.949180
0.367906 0.452408 6.177095
0.049377 0.021355 5.156152
-0.192678 -0.170540 2.294019
-0.162510 0.604882 4.599579
-0.118362 -0.082809 5.227461
-0.554415 0.483623 6.441393
-0.488744 0.611960 6.734793
-0.284386 -0.435378 4.635302
-0.336624 -0.013420 5.032946
-0.427493 -0.470877 3.557949
-0.025957 0.133366 3.613310
-0.005746 -0.021707 3.570059
0.168830 0.137626 2.107574
0.316245 -0.085446 1.306366
0.190286 -0.049477 3.919869
0.255265 0.110093 2.583925
0.346662 -0.050684 0.660787
-0.060979 -0.342115 2.266596
-0.050816 -0.339923 2.514188
-0.335188 -0.342186 6.147183
-0.107538 0.103903 5.293953
-0.141317 0.341685 2.905303
-0.191961 -0.357337 2.468627
-0.324320 1.300572 6.413226
-0.097706 0.134601 3.645048
0.475762 0.863887 6.866936
0.281916 -0.128198 1.428079
0.330234 0.678324 6.546741
-0.451942 -0.413408 4.604734
-0.662772 -0.560886 6.372855
-0.255392 0.098306 1.216895
-0.061343 -0.339112 2.031327
0.213183 -0.063143 1.607237
-0.181220 0.044499 2.915696
-0.303332 -0.177404 2.613132
-0.626841 -0.376856 6.649711
-0.151266 -0.133570 5.036315
-0.496723 0.295543 6.164242
-0.084498 0.050748 4.986075
-0.027176 -0.021571 5.230048
-0.121283 -0.183542 5.533274
-0.124818 0.009153 5.431071
0.030002 -0.071101 2.750378
0.140150 0.130973 5.553093
-0.738579 -0.660728 7.525202
-0.306364 -0.111109 4.573280
-0.279359 0.791085 5.631551
-0.574032 -0.468987 4.935138
0.174928 -0.252096 1.671360
-0.779101 -0.837231 8.057632
0.234625 0.016004 1.975431
0.059830 -0.341584 0.575865
-0.063453 0.162803 2.151309
-0.024314 0.245111 1.355943
-0.671782 -0.291222 5.832205
0.024949 0.113581 5.175001
-0.340612 -0.048839 1.237737
0.189406 1.450506 7.997277
-0.296251 -0.417592 4.414611
0.145521 0.070752 5.139839
-0.250299 0.132461 1.207879
-0.160271 -0.270042 0.059491
-0.154889 0.049671 3.339801
0.320968 -0.079626 3.939742
0.244425 -0.216158 2.300928
-0.322741 0.072554 2.871526
0.089509 -0.379161 3.186453
-0.155221 0.002731 4.071685
0.025901 -0.280095 1.017337
0.090965 -0.239469 4.963633
0.161738 -0.394134 2.642919
0.010781 -0.301917 4.178685
-0.079126 0.256863 4.140810
0.124330 -0.093955 2.954009
-0.208189 -0.144308 2.114894
-0.492860 -0.597214 4.038041
0.226311 0.106085 5.736345
-0.050525 -0.176020 2.594377
0.369655 -0.024513 0.720516
-0.439166 -0.233946 3.243765
-0.324490 0.179160 5.104066
-0.124310 -0.428261 3.840801
-0.257885 -0.048006 3.308379
-0.020683 -0.351580 2.846475
0.096553 -0.285728 1.496305
-0.151771 -0.177865 1.447022
0.185707 -0.104564 1.684807
0.128476 0.283077 0.406619
-0.236487 -0.075796 1.988558
-0.008597 -0.111033 3.023868
-0.463830 0.415214 6.297044
-0.224589 -0.558470 3.332506
0.229190 -0.081793 1.337369
-0.190201 -0.115467 5.051062
-0.499458 0.260995 6.084096
0.257278 0.050002 1.543505
-0.410772 1.381814 6.634113
-0.055166 0.046693 2.896630
-0.120216 -0.258667 2.653811
0.027491 -0.222481 2.453681
-0.509521 -0.307504 6.269250
0.147867 0.250518 5.777615
0.288956 -0.016781 2.266145
0.131734 0.051299 2.296047
0.168730 0.208418 2.166415
0.178890 -0.060870 5.226620
-0.280399 0.142691 2.088547
-0.334067 -0.401245 4.508977
-0.316003 0.019946 4.496564
-0.215417 -0.211683 4.546403
0.016313 0.090393 2.304632
-0.355585 1.124959 7.399257
0.086307 0.265338 6.385551
-0.172884 0.249743 1.695212
0.012071 0.146374 2.112758
-0.526694 -0.196624 5.643088
-0.073299 -0.165955 2.344671
-0.519630 0.682065 6.852773
0.080526 0.006865 3.024367
-0.280824 0.006389 2.249144
0.274064 0.040714 1.485970
-0.115461 -0.159206 2.922080
-0.245554 -0.416951 4.244451
0.196417 -0.391520 2.381846
-0.259977 -0.412536 4.140014
-0.053396 0.324983 4.451615
-0.105399 0.093011 5.496284
-0.358015 -0.015407 1.203269
-0.655224 -0.488876 6.903469
0.302961 -0.065512 3.610859
1.092197 2.243290 7.675393
0.084133 0.264754 1.339463
-0.428988 0.841730 7.029810
-0.499476 -0.184355 4.632099
-0.112294 -0.247321 3.555088
-0.183705 0.003404 3.172625
-0.381252 -0.231267 5.995941
-0.150064 0.263944 2.299896
0.129240 0.197541 1.521470
-0.196100 -0.372661 3.411865
-0.224822 0.131566 2.457850
-0.139243 -0.245655 0.882562
0.295829 -0.012197 2.411029
-0.400609 0.066517 5.745295
-0.333252 0.897208 5.494563
0.159049 -0.065620 2.139236
-0.141743 -0.014278 4.498726
0.237741 0.027049 1.884951
-0.454365 -0.210339 6.138372
-0.510975 -0.208054 4.164698
-0.128564 -0.277016 0.503382
0.128722 0.022098 5.009647
0.096476 0.095261 5.391355
-0.269531 -0.043769 2.835394
-0.009812 -0.219691 3.186380
0.179044 0.253371 6.154937
0.206293 0.112834 1.967220
0.141848 -0.040537 2.588420
-0.136328 -0.144547 4.727881
0.356140 -0.063415 1.651636
0.015628 -0.306293 1.134568
-0.460556 -0.714184 5.261993
-0.268739 0.066710 1.246581
0.021921 0.396033 0.291449
0.404298 -0.015515 0.251823
-0.079171 -0.432500 3.604315
-0.153098 -0.271549 0.161179
-0.164667 -0.004805 3.977434
0.096038 -0.267902 2.658505
-0.370920 1.099912 5.950019
-0.328964 -0.309494 3.741435
0.303526 -0.239226 3.905763
-0.010134 -0.349806 2.799766
-0.626226 -0.442961 5.049262
0.164304 0.105932 5.639661
-0.623626 -0.251926 6.457449
0.078746 -0.169237 4.425637
0.120500 -0.073622 4.790867
0.218275 -0.332430 4.310065
0.018635 0.002715 4.613435
0.056712 0.067826 3.705977
-0.478761 0.292250 5.978983
-0.257311 -0.336298 4.260794
-0.101930 -0.137199 4.536457
0.268798 -0.119266 2.352074
0.087210 0.176763 1.826718
-0.272941 -0.049952 3.000997
-0.292060 0.040889 1.566558
-0.034485 0.266484 2.927678
-0.832381 -0.406631 6.703833
0.127385 -0.151973 3.541727
-0.041862 -0.188796 4.324226
-0.424049 -0.352171 3.758650
-0.230456 0.249903 1.745818
-0.267159 -0.698150 4.394165
-0.257829 1.062612 5.796417
-0.156746 -0.370370 4.048613
0.038682 -0.221500 4.694759
-0.657303 -0.240885 5.221173
-0.340995 -0.041622 1.115055
-0.329958 0.086548 5.660301
-0.525295 -0.233246 6.006402
-0.127222 -0.013113 3.087692
0.213895 0.622329 6.388160
0.050826 0.302339 1.979760
0.005609 -0.395911 2.324363
0.282904 0.081193 1.742845
-0.190243 1.008468 5.786575
-0.467428 -0.275310 3.723127
-0.480040 0.285225 5.962038
-0.283476 -0.249443 4.419034
-0.047825 -0.287666 2.066234
0.119128 -0.168176 1.948329
-0.483800 -0.623761 5.777869
0.080059 0.146059 3.173789
-0.077913 -0.255405 4.397607
-0.189880 0.634314 4.854221
-0.041596 0.467731 4.898291
-0.047060 0.022484 4.835708
0.111576 -0.168617 2.197158
-0.315379 -0.148176 3.232467
0.188848 -0.014721 2.237187
-0.307762 -0.249561 2.968631
-0.587607 -0.594204 6.717782
0.367021 0.048836 0.326468
0.198434 0.044804 2.123950
-0.057880 0.355742 0.370631
0.360070 0.070658 0.053248
-0.315446 -0.212336 1.259987
-0.273108 -0.418306 2.843127
-0.263464 0.205631 5.298131
0.120319 -0.017471 4.087729
-0.282460 0.186640 4.990098
-0.355323 -0.147124 3.962047
-0.186034 -0.211687 4.793437
0.099740 -0.008083 3.285319
-0.075717 -0.354363 0.063664
-0.457201 0.257684 6.183911
-0.018709 0.028178 2.876514
0.249834 0.131172 2.559345
0.118296 0.078632 2.652812
-0.082920 -0.064604 3.560027
-0.317489 0.149270 2.900789
-0.214859 -0.170041 1.213195
-0.002159 -0.150040 4.697963
-0.144282 -0.005168 4.993485
-0.149606 -0.250521 0.601275
-0.169405 -0.412236 3.942465
-0.472948 -0.655646 4.019673
0.272892 -0.378518 3.969965
-0.157621 -0.279417 4.613110
0.083444 0.227298 3.308864
0.081148 -0.011630 4.615521
0.124538 -0.016193 4.874828
0.096547 0.117612 3.357754
0.296738 0.580584 6.341262
-0.388649 0.378355 6.448515
0.006738 0.380728 6.700979
-0.383117 0.011917 4.798428
-0.209458 -0.124720 4.417658
-0.427905 1.862838 7.030526
0.086652 -0.327106 2.583979
-0.165248 -0.141847 1.731916
-0.311989 -0.107916 3.489673
0.105043 0.554069 7.045042
-0.026914 -0.410830 3.364908
0.274158 -0.193703 2.906881
0.292600 -0.139435 1.746987
-0.080342 0.361615 2.035808
-0.620070 -0.637598 5.563150
-0.349466 -0.135265 4.034762
-0.047170 -0.174029 3.520499
-0.395694 -0.606465 5.441019
0.118524 -0.161547 2.651473
-0.559616 -0.191929 5.627405
-0.016218 0.006005 5.253021
0.017421 0.538245 3.941064
0.235951 0.181452 1.747894
0.075279 -0.323114 0.629868
-0.118078 0.076103 5.127817
-0.189547 0.257266 4.095667
0.069705 -0.235813 2.172479
-0.236841 -0.596237 4.664054
-0.088099 0.101827 4.264727
0.221298 -0.008150 1.846198
-0.149526 -0.251268 4.827340
-0.255787 0.458919 4.619978
-0.317261 -0.685149 4.561996
0.253918 0.069506 1.968814
-0.374948 0.019172 0.729249
0.056371 -0.015900 3.007527
0.042585 -0.110973 5.206448
0.026132 0.384179 0.433805
0.130541 0.025716 3.052621
0.154045 -0.040165 3.883241
-0.566188 -0.773035 5.781899
0.001806 -0.046527 5.375580
0.030321 -0.303244 2.850067
-0.174535 0.032319 4.020888
-0.121472 -0.226060 2.998364
0.166390 0.133456 5.852802
-0.080801 -0.216277 3.319410
-0.010561 -0.267125 3.637916
-0.807275 -0.380746 6.848447
0.226306 -0.161136 0.835319
-0.758279 -0.553051 6.274825
-0.511632 0.497998 6.337585
-0.100320 0.041070 4.682078
-0.412592 -0.376736 4.185295
-0.415502 -0.160283 4.465928
-0.185234 -0.194357 2.620519
-0.057812 0.124002 3.589215
-0.057960 -0.237622 4.278916
-0.053745 -0.034652 3.939036
-0.277972 0.064400 1.207627
-0.021806 -0.352695 2.781760
-0.285755 0.521457 4.915288
0.342007 -0.101470 1.914363
-0.487973 -0.648417 5.770945
-0.008098 0.552794 4.603263
0.352558 0.079797 0.023365
0.085863 -0.345751 2.140167
-0.324580 0.838043 5.342316
-0.204506 -0.084368 2.867930
0.017991 -0.393304 0.399213
-0.237952 -0.612992 4.630001
-0.191500 0.125820 1.350286
-0.054520 0.308554 4.374304
-0.149253 0.279380 1.064464
0.300536 0.028106 2.349368
0.168993 -0.026026 2.098359
-0.308526 -0.612688 3.590439
-0.109483 -0.200287 3.546511
-0.405346 -0.692390 5.047012
-0.007191 0.041841 3.488796
0.184349 0.210325 0.719217
0.167047 0.136932 2.037661
-0.215818 -0.331032 2.760970
-0.235445 0.281234 2.117816
-0.077980 0.635709 4.769430
0.014637 -0.139452 2.173636
0.040051 -0.076410 2.871510
0.045344 -0.349432 2.202791
-0.298601 -0.091184 3.087807
-0.020842 -0.031591 4.809363
0.122353 0.161535 1.909639
0.108705 0.347991 4.036442
-0.656593 -0.303793 5.994486
-0.128987 0.081319 5.077356
-0.262835 0.569602 4.550086
-0.311273 0.210920 2.700974
-0.272439 -0.342841 2.998028
-0.333231 -0.360146 3.630656
-0.239907 -0.063863 3.569832
0.278414 -0.326941 3.782232
0.238018 -0.181125 0.258922
-0.908737 -0.404372 7.005596
-0.277128 -0.133526 4.593350
-0.521366 0.272417 6.008621
0.007536 -0.234651 3.990237
0.134015 -0.108664 2.128767
-0.464250 1.787005 6.912565
-0.044307 -0.012901 3.188068
0.100201 -0.154583 2.633107
-0.194978 -0.180579 5.459153
-0.192590 -0.601585 4.072954
-0.363306 1.141686 6.018956
-0.353254 0.017996 1.043962
-0.398947 -0.109639 2.872829
-0.090719 -0.002358 2.832373
-0.151313 0.145887 2.228271
0.139799 -0.396066 2.814938
-0.126381 0.563338 5.200992
-0.503011 -0.451505 5.149358
-0.316414 -0.280851 2.409515
-0.232013 -0.523213 3.209322
0.148708 -0.083438 5.313658
0.100958 -0.309516 0.413891
-0.144865 -0.244665 1.050538
-0.600148 -0.382007 6.503677
0.091503 0.277094 1.087718
-0.271132 -0.213544 4.202939
-0.289252 0.045177 1.533544
0.082181 0.228063 3.293188
-0.020672 0.316616 2.174812
0.317726 -0.100583 4.054267
-0.335986 -0.541749 5.263993
-0.093056 0.111871 5.155391
-0.137939 0.016231 5.431762
-0.023210 -0.126784 5.316588
-0.286872 -0.012575 2.186233
-0.078126 -0.282680 2.062530
-0.260722 -0.259620 4.002035
-0.448486 -0.383312 4.078335
-0.290000 0.092154 2.103408
-0.428837 -0.174549 3.219890
0.282698 -0.305038 3.763584
-0.397821 -0.383229 3.474236
0.101598 0.252181 2.099128
0.087306 -0.363467 3.503965
0.131888 -0.263049 2.382889
-0.102075 -0.370399 3.663691
-0.213927 -0.161855 2.717398
-0.298086 0.191176 2.530256
-0.479862 0.772983 7.511826
-0.558383 0.559362 4.850402
0.110675 -0.137955 2.607908
-0.238742 0.436054 4.442878
-0.101094 0.015759 4.052805
-0.348567 0.018102 2.573365
0.107825 0.248739 2.585247
-0.542403 -0.439224 6.553145
-0.079169 -0.161610 2.427989
-0.327388 1.131273 6.196033
-0.057618 -0.000188 3.111111
-0.185745 0.020428 3.424031
-0.285805 -0.228824 3.999379
0.472695 -0.065994 4.639877
-0.258329 -0.135023 2.232116
-0.655527 -0.756345 7.050149
-0.187208 -0.227415 0.341081
0.034922 0.240290 2.749930
0.124001 -0.113169 3.680661
-0.122758 -0.121768 2.391574
-0.676986 -0.371168 5.069816
0.003530 -0.077995 4.256057
0.167673 0.256487 2.167382
0.050878 -0.243832 3.809124
-0.241425 -0.304415 2.260980
0.202193 0.078155 2.071595
-0.206330 0.214932 0.228234
0.170301 -0.074226 2.417310
-0.213814 -0.009925 3.478030
-0.136962 -0.102734 3.943613
-0.492523 0.749884 7.506247
-0.072085 0.357671 1.615525
-0.146638 -0.023124 4.501946
-0.444401 -0.427289 4.450176
-0.455477 -0.067737 3.994647
0.244469 -0.034405 3.030656
0.146623 -0.036011 2.608135
0.120001 -0.130111 2.780416
-0.041442 0.015222 3.208197
-0.476879 0.159423 5.925876
-1.211292 -0.179762 7.874265
-0.243006 -0.028509 5.172951
-0.062301 0.298999 2.714047
0.169356 0.194609 2.340731
-0.020681 -0.194036 4.131996
0.304904 -0.134880 3.340973
0.078406 -0.321303 2.823649
-0.299293 0.011277 2.066039
-0.027428 -0.309837 3.941125
-0.308208 0.273251 2.550713
-0.194773 0.138599 2.811790
0.280002 0.526996 6.414732
0.174987 -0.059383 2.070376
0.005390 0.110765 3.896071
-0.232463 -0.199503 0.029813
-0.321604 0.951057 5.934295
-0.671404 -0.545779 7.065707
-0.085213 -0.343152 3.123363
-0.248398 -0.703456 4.284886
-0.168575 -0.338047 4.208249
-0.051966 0.400399 3.204312
-0.492737 -0.750175 5.537772
0.176965 0.085300 2.239465
0.098672 -0.000562 3.019543
-0.002651 -0.171984 2.837796
-0.380013 0.046007 4.831193
-0.068221 0.143889 2.378318
-0.101562 -0.285706 2.413212
0.075532 -0.228861 2.121058
0.210196 -0.226318 1.810031
0.328585 0.085209 0.364356
0.110801 -0.334194 4.089770
-0.579159 -0.591928 6.007339
-0.007794 -0.149549 5.218656
-0.070921 0.332210 2.654958
0.110148 -0.283290 2.219576
-0.377625 1.213811 6.203734
-0.066303 -0.172141 2.150066
-0.178694 -0.336746 4.144722
-0.237471 -0.027253 2.269323
-0.264234 -0.055074 2.415426
-0.311668 -0.271057 2.851554
-0.316523 -0.542428 5.185227
-0.408299 -0.346628 3.593810
0.108970 0.173667 1.812414
-0.176316 -0.252773 0.081444
0.241796 0.093514 2.697729
-0.276774 0.989540 5.997524
-0.406955 -0.427779 3.465992
0.204036 0.214649 1.184234
-0.241798 0.211281 1.630115
-0.399480 -0.366121 3.988177
-0.487096 1.382978 6.446310
-0.503430 -0.236493 6.268487
-0.032330 -0.361049 2.235727
0.032277 0.033985 4.144654
0.021025 -0.391044 1.450373
-1.248653 0.517278 7.837376
-0.618812 -0.298623 4.665472
-0.176670 0.123153 5.262697
0.073024 0.246445 1.459314
0.057415 0.263154 6.393188
0.100710 0.508790 3.840810
-0.071051 -0.081800 4.788521
-0.366719 -0.043231 4.445562
0.331971 -0.073379 1.912157
-0.023696 0.451225 6.789938
0.194681 0.132193 1.397051
0.116597 -0.009825 4.988104
-0.098774 0.219504 1.780183
-0.099983 -0.222913 4.754478
-0.340637 0.000231 2.464558
-0.034100 0.069915 2.411022
0.027929 0.103000 2.416180
0.065907 0.249997 3.104763
-0.459003 -0.714643 5.262873
-0.271566 -0.016221 5.843085
-0.027529 -0.139199 3.111843
-0.423633 -0.459652 6.532328
0.146663 0.070685 2.298093
-0.147626 -0.254436 1.692576
-0.132421 -0.152727 2.767074
-0.143400 0.045093 2.302132
-0.105656 -0.297770 3.435223
0.119014 0.313888 2.456510
0.255862 0.108292 2.535338
-0.376710 0.279624 6.087473
-0.524210 0.196010 5.819806
-0.384877 -0.391291 4.310577
-0.393601 0.421534 6.553410
0.200423 -0.186208 0.848661
0.155038 0.088995 5.562705
0.035955 -0.348962 3.566991
0.073188 -0.349202 1.601529
-0.151813 -0.182501 3.957740
-0.063665 0.582699 4.347425
-0.400902 -0.064231 4.008030
0.070751 0.217683 3.132034
-0.024616 0.225366 1.561325
0.259936 0.099884 2.270482
-0.100115 0.114029 2.423866
-0.224389 -0.359279 3.206487
0.276181 0.109448 1.226071
0.596865 1.474834 7.273771
0.042212 0.400439 3.153338
0.088286 0.275918 6.406550
-0.173732 -0.260350 2.623976
0.238087 -0.265092 2.421828
-0.715680 -0.503819 6.980255
-0.236590 -0.699676 4.364421
-0.535319 -0.453497 6.653221
-0.389896 -0.175673 4.521680
-0.163954 0.056969 5.339364
-0.432458 -0.100884 4.199140
-0.333271 -0.136682 5.660599
-0.266292 -0.143245 4.633262
0.095056 -0.102403 2.354056
-0.460228 -0.293694 6.277440
0.668080 0.697143 6.052829
0.129153 -0.026092 5.005659
0.012825 -0.407198 1.616258
0.113973 -0.277241 1.149739
0.229923 0.183763 1.633086
0.221910 0.053560 1.667438
-0.655431 -0.242827 4.997961
0.145710 0.030446 2.424715
0.144459 -0.027890 4.333004
0.209990 -0.234041 2.009640
-0.155512 0.247936 2.370218
-0.312422 0.028783 3.174459
-0.259962 -0.169961 4.509650
-0.148710 -0.155552 4.560163
-0.381206 0.043137 5.573780
0.185546 0.027169 5.556436
-0.143723 -0.373881 3.246971
0.115029 -0.284878 2.065506
-0.087740 -0.328790 0.306860
-0.114090 -0.363295 2.930333
-0.331397 -0.257349 2.195832
0.022222 -0.393193 0.325575
-0.095629 -0.146457 2.898142
-0.067088 0.143770 2.261813
-0.202156 -0.212661 4.595792
-0.616462 -0.555360 6.151568
-0.122322 0.306007 2.326666
0.228183 0.180238 2.088705
0.135391 -0.292822 1.064918
-0.762964 -0.428289 6.626404
0.090007 0.260018 1.205678
0.251494 -0.061844 1.228022
0.217414 -0.177207 4.474722
-0.073584 -0.168211 5.403144
-0.123287 -0.206431 3.679702
-0.243489 0.184005 1.420097
-0.063518 0.582912 4.956337
-0.181231 0.279819 2.007898
-0.515546 -0.236709 5.066542
-0.059718 -0.057228 3.195642
0.266043 -0.118326 0.894150
-0.155193 0.347677 4.607571
-0.369886 1.237036 6.339936
-0.244813 0.189814 1.554335
0.003204 -0.347508 3.444653
-0.479133 0.145117 5.668671
0.007813 -0.075163 4.116376
-0.657594 -0.218162 5.689776
-0.190398 -0.247033 1.782271
-0.465165 -0.419436 6.360827
-0.120117 0.330023 1.076011
-0.415801 -0.194886 2.903835
0.058292 -0.010823 3.026339
-0.192080 -0.185124 2.683632
-0.606537 -0.193939 4.695474
-0.679126 -0.275078 5.971745
-0.488960 -0.554234 6.745236
-0.135308 0.196720 3.148969
-0.539996 0.663582 6.673097
0.286484 -0.255780 4.038506
-0.128426 0.330882 1.916485
0.169645 0.241789 5.577012
0.044287 -0.206915 3.931059
-0.048352 -0.369749 0.278654
-0.403703 0.895776 7.076372
-0.352325 -0.383226 4.089154
-0.045112 -0.568323 3.260931
-0.341716 0.242092 5.768389
-0.081003 -0.166099 3.068847
-0.436375 -0.152089 6.101771
-0.364541 -0.324413 2.921520
-0.123394 0.041813 4.098861
-0.971636 0.077848 5.039492
0.298871 -0.106791 3.027819
-0.336164 -0.307757 3.096578
0.170545 -0.012226 2.132238
-0.280882 -0.101121 1.087693
-0.081464 -0.257023 3.294680
-0.077181 -0.164743 2.251841
-0.238800 -0.141985 2.576539
-0.617431 -0.658605 6.938548
-0.143962 -0.121396 5.127015
0.309497 0.464705 6.377232
-0.278324 -0.115275 0.732216
-0.339244 -0.704701 5.037764
-0.061447 -0.370314 3.593858
-0.174881 -0.179122 4.202786
0.220735 0.817445 7.654027
-0.390422 -0.290859 2.623296
-1.317979 -1.868692 7.993673
-0.421556 -0.667605 3.978296
0.289508 0.654534 6.346291
-0.335555 -0.364451 2.681812
-0.169049 0.099143 2.596291
-0.039700 -0.121019 3.481637
-0.108491 -0.139362 2.874798
-0.273413 0.943147 5.910580
0.230872 -0.163007 2.399596
0.150098 -0.156428 1.939562
-0.161804 0.829275 5.278831
-0.413072 1.153483 6.205044
0.005854 0.202771 5.636201
-0.269654 1.790660 7.101000
0.212442 0.087544 1.600257
-0.071743 -0.269522 1.650735
-0.080909 0.196868 1.976727
-0.251395 -0.021608 5.070503
-0.079535 0.283730 1.097305
-0.047055 -0.258289 4.241070
0.087514 -0.172382 3.813828
-0.601769 -0.193731 6.425208
0.548833 1.336333 7.373726
-0.938567 0.372326 7.849904
-0.293039 0.575469 5.016257
-0.164272 -0.025299 3.438767
0.098593 0.180445 3.454734
0.052124 -0.351648 2.218864
0.139748 0.093709 5.193229
-0.194978 0.009204 1.997076
0.261846 0.067402 2.098061
-0.558553 0.526598 4.869683
-0.272832 -0.262137 2.154566
-0.028578 -0.176177 4.667179
-0.085685 -0.220691 3.286958
-0.622309 -0.208022 5.217568
-0.280438 0.134497 2.075670
-0.201173 0.187964 0.823083
-0.065721 -0.355664 0.219713
-0.250565 0.374736 3.169625
-0.253630 0.045213 2.711700
0.339304 -0.087619 3.959891
-0.343123 1.445108 6.820742
0.205664 0.221619 5.958940
-0.510810 0.256292 6.045428
-0.029068 0.431678 3.870392
0.198202 -0.011061 2.201107
-0.225421 -0.157831 3.777849
0.335673 -0.090103 3.852202
-0.159923 -0.220505 1.017936
-0.663748 -0.713234 6.916389
-0.449418 -0.187350 3.626904
-0.345935 -0.593157 5.254203
-0.194455 0.256791 3.856246
-0.342136 0.968211 5.608230
-0.523252 -0.394875 4.296339
-0.010908 -0.220298 3.327560
0.285184 -0.054706 3.388591
-0.294641 -0.191504 3.676302
0.087517 -0.178930 2.595090
-0.530207 -0.230205 5.126131
-0.098139 0.278581 3.059399
0.071579 0.135657 3.051207
-0.093251 -0.132375 3.553677
-0.155840 0.397131 4.842808
-0.126350 -0.258297 4.659316
-0.372088 0.020763 0.752666
-0.469098 0.653843 7.184721
0.183748 0.150129 1.344796
-0.432699 -0.238735 6.205603
-0.307512 -0.154947 3.531555
0.348402 -0.035591 1.498926
0.042664 0.324724 2.349733
0.018053 0.575821 4.232017
0.182412 -0.351604 4.081364
0.023197 -0.373946 0.652206
-0.089144 0.003878 3.104653
-0.221646 0.384867 4.306956
-0.200440 0.049183 5.259488
-0.157274 0.265474 1.063172
0.034392 -0.071036 2.725737
-0.481130 0.545671 6.379059
-0.160368 -0.178632 2.581160
-0.126561 -0.263908 0.777804
0.024988 -0.292291 3.935573
-0.338882 -0.002670 3.467256
-0.048994 0.073164 3.525683
0.198527 0.048813 2.120126
-0.307025 -0.157355 2.418777
-0.348846 -0.710307 5.086880
-0.063733 0.140927 3.656625
-0.275273 0.899673 5.449455
0.084188 -0.219246 5.005903
-0.518840 -0.728740 5.819744
-0.412208 -0.259143 4.897613
-0.545538 -0.641248 5.495395
0.013540 0.045291 3.947707
0.292319 0.073970 1.094578
0.033858 -0.394208 2.121830
-0.227227 -0.144250 2.831036
0.110743 -0.365617 2.230209
-0.289599 -0.103132 1.554856
-0.855341 -0.415484 6.785383
-0.553491 -0.516043 6.746526
-0.023372 -0.261694 2.868635
-0.133969 -0.536138 3.757443
0.301670 -0.071596 3.819629
0.229340 -0.016656 1.714845
-0.105267 0.554709 5.182667
-0.826258 -0.500437 6.657476
-0.236740 -0.557186 3.336580
-0.068817 -0.187555 5.348055
-0.022609 0.011004 2.608697
0.036141 -0.001232 3.496315
0.083165 -0.282682 2.906845
-0.112342 -0.137690 3.699924
0.405788 1.704063 8.071726
0.155448 -0.044256 3.147724
-0.119661 -0.276709 3.575485
-0.237625 1.913142 7.234811
1.091176 -0.094642 3.702406
0.235293 -0.352983 2.846581
0.202805 -0.140306 2.039855
-0.248983 0.184902 2.149398
0.212523 0.051079 1.877258
0.100979 -0.234104 2.846933
0.163899 0.244325 6.166219
0.213630 0.193949 1.712514
-0.372567 1.140278 6.215397
-0.202407 0.396109 4.059428
-0.613410 -0.677094 5.468966
-0.583833 -0.284977 6.250207
-0.223408 -0.208815 0.025204
-0.200620 -0.016820 4.082288
-0.204594 -0.403464 4.012489
0.190316 0.069791 2.068415
-0.039912 -0.378013 2.419539
-0.251894 0.183651 1.862733
0.258368 0.160094 2.124612
-0.373078 0.024089 5.042443
-0.044107 -0.331963 2.736556
0.129124 0.080519 2.517763
-0.204175 0.472760 3.888866
-0.232044 -0.230073 4.368571
0.024602 -0.095397 4.660480
0.134337 -0.090825 3.517579
-0.076762 -0.337095 3.151290
0.115044 0.283436 2.508018
0.276930 0.761756 6.545323
-0.289574 -0.064099 1.103730
0.280485 0.718668 6.645238
-0.552531 -0.230454 4.368957
-0.533897 0.401519 6.312795
-0.461234 -0.296816 6.317009
0.275126 -0.274083 4.075359
0.185594 -0.025263 3.039194
-0.078375 0.363182 1.796787
0.077604 0.073766 3.069034
0.199976 0.205447 0.518150
-0.161403 -0.242618 1.142841
-0.198930 -0.287490 2.463536
0.054390 -0.376605 0.047048
-0.342859 -0.056438 1.023356
-0.326089 -0.015357 1.719882
-0.417501 1.339869 6.528914
-0.603000 -0.316153 5.972865
-0.076454 -0.157799 3.189185
0.142020 -0.160467 3.214097
-0.832864 -1.116184 7.473913
0.035326 -0.109265 5.154284
-0.092835 0.077777 4.431825
-0.512584 -0.235895 6.294012
0.312130 0.487744 6.414977
0.231073 -0.389008 2.945164
0.064187 -0.219274 3.757076
-0.178225 -0.040201 4.101180
0.017636 0.099498 3.191336
-0.082357 0.137084 2.716794
-0.229247 0.223979 1.099109
-0.064832 0.505734 5.074740
-0.080995 0.360367 1.380514
-0.309366 0.127649 5.710284
-0.159245 0.129301 3.287003
-0.096292 -0.097259 2.546275
0.231625 -0.400772 3.026987
-0.135882 0.079251 4.455397
0.136892 -0.169247 3.161402
-0.382122 -0.700021 5.297063
-0.077147 0.397986 4.808729
0.031695 0.578764 4.244476
-0.103153 -0.190403 5.008726
-0.177579 -0.205823 0.913643
0.201481 -0.304502 1.084713
-0.067758 -0.347771 2.803482
-0.199940 -0.661389 3.997576
-0.623192 -0.214867 4.854057
0.395880 0.544810 6.534887
-0.092118 -0.292664 3.333234
-0.018569 -0.098728 5.191395
0.000234 -0.248736 4.000992
-0.050206 -0.327318 3.616985
-0.113634 0.083428 3.655641
-0.037038 -0.141387 5.105625
0.423154 0.614358 6.646226
0.065957 -0.332181 1.249259
0.147204 -0.150615 1.988044
-0.068989 -0.312155 2.590020
0.292863 -0.179941 3.298423
-0.294928 -0.075988 2.663245
0.214691 0.055242 3.273990
-0.138335 -0.317614 3.030155
-0.548566 -0.474793 6.665139
-0.222984 -0.118232 5.184488
-0.448221 -0.654863 4.616869
0.041694 -0.225711 3.700604
0.221573 -0.159790 1.008839
0.085458 -0.367782 2.426931
0.007586 0.389367 3.110609
-0.066056 0.255829 1.328807
-0.429618 1.405837 6.491489
-0.272585 -0.252573 4.375833
1.014881 -0.170941 5.178093
-0.091675 -0.205016 4.887458
0.057543 0.100342 3.538424
-0.039255 -0.444944 2.742488
-0.022746 -0.187896 2.935909
-0.264142 -0.041832 3.213757
-0.668459 -0.173571 6.023838
-0.153986 0.074441 4.111345
-0.182486 0.305332 1.069007
0.017894 -0.255167 4.647566
0.169816 -0.312828 1.389815
-0.284769 -0.504308 5.094661
0.195808 -0.014540 1.785208
-0.445730 -0.458429 4.895347
-0.502363 0.243375 5.912686
-0.072000 -0.188419 3.340366
0.049448 -0.293860 3.125121
-0.266827 -0.219031 1.053070
-0.401523 -0.204456 6.292704
-0.264212 0.094124 2.226674
-0.238781 0.193466 1.274034
0.065429 0.267407 2.171297
-0.071608 -0.002556 4.229447
-0.360469 0.014005 5.184544
0.391799 1.623631 8.160857
-0.064257 -0.197738 5.312135
-0.295008 -0.125881 2.579793
0.236446 0.050786 2.286772
0.098525 0.308543 4.132595
-0.597999 -0.186360 5.610322
-0.194066 -0.169674 4.136762
0.000054 0.366957 6.442495
-0.072995 -0.576028 3.287277
0.215546 0.494892 6.145078
-0.261691 -0.055359 2.087705
-0.051036 -0.477478 3.403401
-0.414617 -0.443129 6.535035
-0.141971 0.110148 5.018243
0.041850 -0.124878 4.500081
-0.258664 -0.048062 2.284399
-0.366646 0.208584 6.030565
-0.034619 -0.181539 2.891182
-0.615208 -0.392439 6.686773
-0.138408 0.051536 4.013930
-0.333990 -0.037418 1.235411
0.169842 -0.158002 1.728774
0.259177 -0.000085 2.666103
-0.292595 -0.128136 3.077550
0.022403 -0.123568 2.280167
0.196362 0.016971 3.552376
0.182491 0.031820 2.064555
-0.070451 -0.216716 5.294792
-0.371291 0.091389 4.962927
-0.192073 -0.086554 4.335079
0.152205 -0.037678 3.815432
-0.252847 -0.312542 2.631410
-0.233631 -0.373413 3.567159
-0.319466 0.787683 5.315455
0.180656 -0.035891 4.543866
-0.324644 -0.124294 4.312593
0.401637 0.008349 0.434339
-0.435522 0.541321 6.586032
-0.180686 0.090558 5.312541
0.147314 0.176482 2.736872
0.009019 -0.071858 4.744648
0.270305 -0.253250 3.152045
0.200287 -0.039472 4.587201
-0.364171 1.218695 6.484978
-0.237508 -0.085816 2.053910
0.463723 0.852359 6.836341
0.026516 0.271983 1.619958
-0.577733 -0.533324 6.727533
0.030807 -0.225409 4.847610
0.313115 0.130644 1.117798
-0.245759 0.327514 2.843500
0.000764 -0.488479 2.913704
0.255726 -0.252461 2.784078
-0.404549 1.402271 6.789477
-0.228485 0.836020 5.304768
-0.208966 -0.002184 3.406718
0.078639 0.535587 6.965990
-0.540576 -0.710248 5.342353
-0.044689 -0.252597 3.686857
-0.449601 -0.275733 6.357504
-0.092914 0.121526 2.482685
-0.279321 -0.233158 3.839930
-0.007350 -0.420136 0.110223
0.077531 0.104743 5.364634
0.183989 -0.048021 3.992937
0.206080 0.127346 5.315039
0.002086 -0.057910 5.388215
-0.301025 -0.360489 3.519954
-0.130008 -0.135581 2.134345
0.033972 -0.230498 2.099769
-0.283609 -0.111288 0.708501
0.156789 -0.071656 2.164181
-0.509143 -0.256302 6.279811
0.098078 0.009696 3.227044
0.128240 0.065556 3.506572
0.082500 -0.296847 0.975235
-0.021418 0.117956 3.264837
-0.219897 -0.266603 3.682044
-0.049199 -0.067833 2.902961
0.031415 -0.369464 1.288187
-0.151501 0.298347 4.371453
0.126442 0.242924 1.589008
-0.157829 0.207793 2.761385
-0.087518 -0.136141 5.515331
-0.454419 -0.410545 4.023340
-0.228541 -0.383187 3.892932
0.498339 1.012326 7.062867
0.193153 0.199718 1.116745
-0.179481 0.947881 5.749297
-0.463638 -0.443271 4.589499
-0.378798 -0.036581 3.797000
0.300175 0.531602 6.249222
-0.114281 0.132370 3.642731
-0.165376 -0.122353 4.741526
-0.286140 0.226492 5.315551
0.159946 -0.097901 1.970413
-0.071236 -0.046442 4.856398
-0.452301 -0.244417 3.496471
0.296220 0.377814 6.135238
0.085382 -0.092540 3.650560
-0.023159 0.426645 3.334556
-0.283241 0.553119 4.821735
-0.175167 0.135491 5.103254
-0.046418 0.087030 2.542997
-0.285785 -0.081508 2.931590
-0.265028 -0.115065 3.590304
0.238379 0.144074 2.478494
-0.300935 -0.162557 5.705563
-0.366345 -0.063528 0.067384
0.130398 -0.199367 2.061547
-0.536238 1.402555 6.587641
-0.533454 0.337185 6.187689
-0.695098 -0.824464 7.053753
-0.682469 -0.544414 6.831135
-0.346132 -0.045491 2.445865
-0.221850 0.130520 2.393273
-0.243302 0.402888 4.547546
-0.301369 0.048386 4.844446
0.140331 -0.298390 4.503058
0.095683 -0.105955 3.663299
-0.184200 -0.034360 3.538337
-0.342926 -0.047628 0.794304
-0.961364 -0.293086 7.341193
0.339552 0.391931 6.092856
-0.281809 -0.137364 4.539135
0.285824 -0.279654 3.695862
-0.053449 -0.341115 2.201663
0.136348 -0.094681 3.790858
-0.423528 0.277651 6.186906
-0.167615 0.278381 4.284421
0.087123 0.041378 3.149261
0.210748 -0.036195 2.985018
-0.271151 -0.123912 0.704354
-0.194633 0.200913 1.069109
-0.297384 -0.049725 2.099806
-0.147980 -0.256820 1.840277
-0.010562 0.035220 2.904232
-0.371837 -0.388809 4.086137
0.061989 -0.385408 2.901511
-0.239992 -0.009691 4.968370
-0.424361 1.968502 7.098389
0.073489 0.251576 3.205733
-0.317641 0.749856 5.397364
0.196836 -0.381864 3.647417
-0.308861 -0.210593 1.072911
0.156040 -0.092714 2.071743
0.281390 -0.022166 2.108628
-0.015709 0.065382 2.663792
0.302067 0.260666 5.946566
-0.092966 -0.310053 0.549354
-0.100423 -0.280616 1.043957
0.014286 -0.407734 1.594666
-0.388905 -0.422949 4.786232
-0.414068 -0.092180 3.176991
-0.202631 -0.189868 4.799375
-0.000180 -0.279747 3.521012
-0.486576 -0.366631 6.508656
-0.448731 -0.401558 4.956667
-0.097948 -0.401530 2.590177
-0.452784 0.535586 6.784128
-0.401064 -0.115193 2.885094
0.294886 0.585123 6.400634
-0.200799 0.108868 2.998602
-0.063214 -0.223340 1.506639
0.352861 0.748901 6.612633
0.148264 -0.378880 3.472634
-0.330456 -0.316130 4.550396
-0.323646 1.164778 7.473151
-0.241921 0.139782 4.674508
0.068968 0.339844 6.601868
-0.129687 0.094104 4.765281
-0.523288 -0.384438 4.219071
-0.361921 1.135591 5.955710
-0.065484 -0.036638 3.410590
-0.195715 0.025095 3.505962
0.101362 0.409665 3.742320
-0.334428 -0.110692 4.183164
-0.089125 -0.208998 5.373394
-0.297370 -0.182254 2.792786
-0.358588 -0.183550 2.347214
-0.197929 -0.322550 4.046397
0.121519 0.230051 2.237782
-0.222771 -0.077632 2.537543
-0.164619 -0.130343 3.187246
-0.033196 -0.276586 1.591927
0.217522 -0.220799 1.103582
-0.062779 -0.261332 1.011221
-0.281284 -0.613543 3.574023
-0.149229 -0.211255 2.736856
0.231234 -0.173729 0.513984
0.039692 -0.234388 2.048077
0.014093 -0.131464 2.230226
0.123399 -0.214922 2.085914
-0.657725 -0.792381 6.997322
0.218041 0.183861 1.473726
-0.378792 -0.459494 4.640844
0.232460 -0.034774 1.356949
-0.498241 -0.255815 4.051276
0.069893 0.104635 2.994492
-0.252242 0.691601 5.448646
0.091235 0.124475 3.295917
-0.611844 -0.381261 6.536174
-0.145910 -0.344414 4.167948
-0.289435 -0.005000 1.783100
0.183142 -0.046884 5.404179
-0.460187 -0.331168 3.422687
-0.330349 -0.686464 4.128012
-0.209774 -0.328031 2.344254
0.172733 0.236647 5.965664
0.009546 -0.219844 1.965748
-0.252475 1.118700 5.937013
-0.475982 -0.471142 4.809446
-0.670447 -0.311615 5.367219
-0.592546 -0.158162 6.124800
-0.158305 -0.668476 3.719386
-0.594601 -0.210022 5.260854
0.046270 0.098993 2.260246
0.022226 0.092731 5.351664
-0.328523 -0.065159 1.596609
-0.289901 0.092631 0.944282
-0.045485 -0.021155 4.418351
-0.331568 -0.353602 3.472200
-0.460993 0.282036 6.191886
-0.675995 -0.323778 5.708795
-0.091451 0.004502 4.033016
-0.695307 -0.242446 6.429855
-0.057068 -0.360183 2.964269
0.227606 -0.102352 2.040181
-0.687342 -0.694572 5.864030
-0.526551 -0.701770 5.872820
-0.049905 -0.021141 3.874642
0.027487 -0.350907 3.486910
-0.233225 0.457123 4.347385
-0.099590 -0.277998 2.693195
-0.153574 -0.274665 2.030911
-0.223862 -0.131128 4.220373
-0.156352 -0.305840 2.416271
-0.004224 0.176928 3.772931
0.118535 -0.110244 3.218054
-0.407172 -0.259530 6.071156
-0.131219 0.249831 4.131604
-0.181612 -0.532788 4.126869
-0.192364 0.025842 2.642159
-0.456097 -0.524276 3.698852
-0.179050 -0.175607 4.987497
-0.056431 -0.319384 2.744071
-0.258676 0.010561 2.774030
0.156640 0.188778 2.509834
-0.154897 -0.231181 1.263857
-0.443353 -0.349311 3.787754
0.211291 0.193211 5.940647
0.062486 -0.366502 3.324642
-0.146022 -0.247619 1.256303
0.194888 -0.227895 0.193851
-0.317939 -0.127899 1.946226
0.023268 0.002877 3.459798
0.220474 -0.052527 1.595252
0.101621 -0.211579 2.814244
0.256422 0.062523 1.325826
0.282642 0.186349 5.749186
0.093101 0.422664 3.648674
-0.235513 -0.133381 2.899187
0.291207 0.030397 2.051570
0.203214 0.361854 6.119747
0.168256 -0.105588 1.815308
-0.092802 -0.193892 5.416258
-0.222294 -0.190293 5.865439
-0.210584 -0.288665 2.158709
0.154970 -0.069052 4.945766
-0.633731 -0.522593 6.305632
-0.009460 0.163615 2.067757
-0.277371 0.443701 4.909305
0.281949 0.077203 1.148964
-0.693249 -0.194160 6.819559
-0.245922 -0.033441 4.537922
-0.193503 0.134069 2.298790
-0.396054 0.324601 5.989678
-0.073703 -0.381378 3.642291
-0.013288 -0.022387 4.398412
0.116078 -0.154042 3.671865
-0.085943 -0.161680 2.071969
-0.437298 -0.743037 5.417176
0.046072 0.455484 6.601943
-0.695700 -0.620239 7.244883
-0.048547 0.316093 2.389549
-0.420473 -0.164912 6.198717
0.023865 -0.070620 5.274020
0.028511 0.044873 4.678927
-0.099329 -0.331778 3.989995
0.036849 0.020620 5.658920
-0.320869 1.231444 6.230369
-0.524161 -0.611376 6.803963
0.206184 0.229306 5.968395
-0.185517 0.012889 5.546449
-0.088688 -0.215913 5.357980
0.059917 -0.331157 1.146561
0.296899 -0.115989 0.372457
0.224255 -0.381195 3.796662
0.044212 0.292141 1.762510
0.240675 0.365975 6.182450
0.104768 0.194142 1.612741
-0.117335 -0.300075 3.172386
-0.267014 0.090421 1.913011
0.258454 -0.346133 3.389006
-0.537076 -0.239526 4.276794
-0.080984 -0.309691 2.314427
0.054939 0.026987 4.978435
-0.017904 -0.518751 3.038766
-0.214470 -0.214735 4.577409
-0.281341 -0.311306 2.662494
-0.017923 0.186909 5.754820
-0.413785 -0.050171 3.313109
-0.324485 -0.182924 3.241921
-0.111328 -0.028025 2.806415
-0.234260 0.217260 1.295412
-0.089319 -0.220713 4.693631
-0.001601 -0.205959 2.799276
-0.194402 -0.360916 2.488336
-0.967670 -0.326808 7.238356
-0.167666 -0.191884 4.022008
-0.223925 -0.152762 4.260922
-0.354580 -0.126632 5.769857
-0.139968 -0.310634 2.298941
0.133867 -0.158913 3.351346
0.162666 -0.245507 0.455032
-0.033807 -0.231568 2.956415
-0.092840 0.021042 4.098525
0.268474 -0.079512 2.115950
0.006385 0.369468 3.000642
-0.233189 -0.013334 2.712877
0.333148 0.008725 1.278084
-0.666521 -0.275749 5.556033
-0.209129 0.051712 3.368169
0.127926 -0.295924 1.122113
-0.155261 -0.176064 3.567492
0.106252 -0.026589 3.792467
-0.080165 -0.300462 2.605123
-0.287316 0.118655 0.510480
-0.234355 -0.155147 1.413732
-0.877984 -0.436975 6.869010
-0.288349 -0.013836 5.317266
-0.063146 -0.204434 3.333109
0.151342 -0.158804 3.106205
-0.678975 -0.563053 7.141366
-0.402012 1.146003 6.310140
0.161462 0.137640 2.039088
-0.194660 -0.198909 2.231869
0.022655 0.256470 1.766313
-0.251272 -0.086355 2.729894
-0.225485 0.515401 4.173979
-0.396857 -0.299762 3.629657
0.173724 0.090449 1.873965
0.005520 -0.365809 2.556964
0.203055 0.040438 3.072268
0.296250 -0.021038 2.767637
-0.372562 -0.709402 5.249842
-0.443304 0.858841 7.084053
0.197482 0.138117 1.992205
0.164978 -0.218806 1.644352
-0.416298 0.393633 6.311470
0.041914 0.350297 6.266209
-0.453143 0.199970 5.599415
0.049259 -0.109069 2.363983
-0.191059 0.216165 1.582226
0.170172 -0.255948 4.646666
-0.331993 -0.344090 2.989742
0.031531 -0.136371 5.149264
-0.178960 0.823462 5.676747
-0.483908 -0.380313 4.145321
-0.548494 -0.393106 6.642034
-0.163431 0.509491 3.871347
-0.016696 0.135714 2.078344
-0.525669 0.234318 5.998641
0.121448 -0.127745 2.469831
0.279266 -0.161886 1.879105
0.128915 0.333109 2.339516
-0.282873 -0.037011 1.044796
0.082116 0.310842 0.755238
-0.093387 -0.241860 3.850962
-0.247900 -0.143536 1.498049
-0.067519 -0.283012 1.986974
-0.269657 0.043562 1.251482
-0.206497 -0.601102 4.255047
-0.224913 -0.166679 0.765115
0.242901 -0.251746 2.465136
-0.267445 0.930367 5.886078
-0.669167 -0.243147 5.932410
-0.043625 -0.247820 4.229656
0.041440 -0.005179 5.556442
0.043921 -0.238776 3.176206
0.309703 0.105966 1.615536
-0.673071 0.163877 7.479777
-0.118522 -0.268078 1.286262
0.182954 -0.314235 1.086875
0.102547 0.232265 3.945955
-0.149660 -0.184611 1.391759
0.206267 0.416346 6.175567
-0.145077 -0.239292 2.497506
-0.568747 -0.161060 6.151009
0.202206 0.370902 5.900678
-0.354758 -0.567345 5.314573
-0.225616 -0.207763 2.087999
-0.083311 0.213731 3.378190
-0.311298 0.114699 5.683582
0.140697 -0.108804 2.372554
-0.201169 0.020738 4.951707
-0.070665 -0.017775 4.904907
-0.338944 0.909332 5.703113
0.093845 -0.275990 1.579633
-0.578208 -0.449545 4.761590
-0.008392 -0.374624 2.535299
-0.266184 0.007057 3.297027
0.381911 1.358546 8.246709
-0.192121 -0.204234 0.673706
0.097450 -0.337412 2.073380
-0.023121 0.076784 4.798994
-0.028142 0.331405 2.574080
-0.304271 -0.392741 4.076073
-0.284458 -0.117005 2.004382
-0.324018 -0.282128 3.043319
-0.054478 0.624772 4.666754
-0.331181 0.055014 5.586910
-0.301697 0.070711 1.039143
-0.076798 0.348625 2.177996
-0.238241 0.144729 3.515399
-0.495258 -0.622856 4.818296
-0.565878 -0.391934 4.321307
0.154277 0.137989 1.660613
0.180415 -0.155843 2.847600
-0.292880 -0.038080 2.458473
-0.388689 0.265313 6.096186
0.288414 0.360194 5.916998
-0.214005 0.343596 2.976641
-0.128226 0.330477 1.875123
0.129104 -0.014492 3.239597
0.097995 0.133915 3.248706
-0.467706 0.852623 6.956287
-0.206766 0.096211 3.010342
-0.224843 0.249669 3.653951
-0.092754 0.036245 2.890718
-0.092241 -0.363738 3.240464
-0.244998 -0.341258 2.908475
-0.256277 -0.056356 2.714391
0.097993 -0.284511 0.918240
0.066549 0.311645 2.819219
-0.176862 0.005329 4.150182
0.171353 -0.021100 5.000044
-0.443018 1.684522 6.826688
-0.259428 -0.003781 3.378313
-0.372107 0.988208 7.203037
-0.355592 -0.054278 3.914749
0.392210 0.976626 6.886850
0.294114 -0.018268 2.748750
-0.052024 0.245464 1.411435
-0.469449 -0.323669 3.602253
0.192038 0.102685 5.713569
-0.351647 0.007466 5.309902
0.293775 0.243403 5.697903
-0.214677 -0.079458 2.791813
-0.301542 0.660889 5.022744
0.196539 -0.243068 4.517774
0.323740 -0.071950 3.667853
-0.360207 0.011109 2.679272
-0.399349 -0.422374 3.411495
0.055336 -0.448589 2.736693
-0.200545 0.006018 3.412955
-0.279301 -0.699103 4.015069
-0.134818 0.159736 3.355837
-0.681396 -0.250061 6.025924
-0.187061 0.131827 5.280559
-0.074363 -0.302847 3.177207
-0.235636 0.068859 2.793923
-0.849784 -0.434185 6.930408
-0.286113 -0.222924 1.529709
0.172052 -0.314107 1.364206
-0.269112 -0.134707 1.196843
-0.195870 -0.418384 4.107783
-0.330607 -0.680879 4.692138
0.310855 -0.175684 3.723906
-0.278105 0.126674 4.758741
-0.011020 -0.269815 4.235557
-0.294896 1.208350 6.162791
-0.203774 0.200483 1.933079
0.044475 -0.014338 4.082488
0.279190 0.074094 1.739065
-0.014957 0.325581 1.697371
0.017685 0.219983 3.930529
-0.402123 -0.418831 4.768350
-0.198060 -0.548529 4.295619
0.012621 0.392598 0.529304
-0.395847 1.279742 6.417785
-0.624077 -0.316566 5.939131
-0.511829 -0.551579 6.765492
-0.331217 -0.011385 5.406115
-0.657066 -0.246224 5.101522
0.235223 -0.058405 4.055724
-0.725875 -0.149406 6.943570
0.130047 0.205401 5.863416
-0.256368 0.133567 2.226958
-0.172867 -0.103196 2.812037
0.118298 -0.140584 2.349878
-0.540280 -0.459641 5.044280
0.316522 0.448644 6.214063
0.127040 -0.093323 3.137729
-0.242665 0.056887 2.895343
-0.049943 -0.239435 4.127282
-0.448287 -0.385033 4.179455
-0.155115 0.280034 1.665985
-0.381032 0.072743 5.749685
-0.276005 -0.083381 2.646870
-0.350392 -0.351062 3.482482
-0.636214 -0.220892 4.890564
0.083006 -0.198340 3.076661
-0.438002 0.211007 5.586874
-0.175996 0.310186 2.473562
-0.184850 -0.344508 2.849310
-0.104838 0.105580 3.536052
-0.237793 -0.099181 3.383489
-0.265339 -0.347904 3.090938
-0.240962 0.971720 5.963507
0.029639 -0.041435 5.341958
-0.222030 -0.114121 4.074822
-0.001130 0.000006 0.633227
-0.171502 0.539915 4.097500
-0.028862 0.065476 5.060320
-0.347460 1.005741 5.696780
0.202148 0.201812 0.545324
-0.195216 -0.345069 2.412442
0.237959 0.436896 6.251804
-0.662895 -0.272398 5.253105
0.272529 -0.071751 2.631996
-0.500362 1.663456 6.853842
-0.117245 0.769663 5.300159
-0.770268 -0.454814 6.763284
0.019129 -0.124154 3.963514
-0.604758 -0.394738 6.693495
0.167710 -0.019219 3.007947
-0.073294 -0.227936 4.563776
0.101504 -0.017914 4.539067
0.051727 0.269577 1.446588
0.207481 0.375403 6.124476
-0.377502 -0.366510 3.924415
-0.064404 0.005915 3.137169
-0.108054 0.303780 2.267436
0.218171 0.189918 1.572450
0.108399 -0.265525 4.750190
-0.068088 0.629155 4.711084
-0.573331 -0.338493 4.382105
