-0.247983 0.014517 1.778793
0.090094 0.071959 0.625713
0.107890 -0.879902 4.911937
0.528075 1.948497 4.218081
-0.139017 0.106706 0.947975
-0.640097 0.431363 5.253833
1.297972 -0.673592 6.290591
1.385811 1.099967 4.775644
-0.913836 -0.354151 3.488590
1.464363 -0.686702 4.332223
0.911184 -2.015521 5.702356
-0.710888 1.527475 3.221922
-0.084644 -0.006939 0.883191
1.566601 0.157428 5.267837
0.369493 -0.465357 3.542974
0.115041 -0.452481 2.482637
-0.994131 0.197655 4.290367
0.194168 -0.229748 1.970750
-0.563303 0.291509 2.948161
0.874812 -0.323090 4.959690
-0.563512 0.420491 4.147302
-0.534727 0.167226 2.967724
1.694933 0.887167 3.694052
1.324822 1.528076 2.552250
-0.302099 0.129773 1.549299
0.041384 1.652312 5.080972
-0.589035 -1.933144 4.667713
-1.209416 -1.011199 4.421861
0.357324 0.489357 6.718864
0.436856 -0.539404 3.951831
-0.416560 0.094452 2.454851
1.820585 2.576672 5.412535
-1.155695 0.968230 4.168433
0.651338 0.717602 3.497094
1.026220 1.751841 3.858877
-1.252250 0.187926 5.150139
0.935795 -0.247679 4.967860
1.869770 -1.047273 4.508269
-0.136807 -0.953389 3.071393
2.607215 1.184243 5.139040
1.193355 0.666422 2.603366
-0.122836 -0.071039 0.988193
-1.128855 0.200816 4.692053
0.226242 -0.386428 2.775743
2.732928 2.310770 5.478954
-0.958352 -0.102716 3.407179
-0.019564 0.115355 0.646375
0.744251 0.810210 3.808505
0.441997 0.600874 3.630830
1.355711 0.554142 3.909971
-0.247468 -1.033471 4.126696
0.219211 -0.300077 2.187363
1.826353 -1.343385 4.685818
0.328751 0.447127 2.509080
-0.007192 0.004027 1.099241
0.088664 -0.143679 0.904688
0.682262 -0.370654 7.110406
0.580497 1.793555 4.083253
0.102017 -1.215049 4.832441
-1.949902 1.256245 4.693712
0.756682 1.589302 3.885879
0.651141 -0.456241 4.822105
1.529753 0.460922 3.912047
0.126818 2.162839 4.485761
-0.431128 1.396845 6.052939
0.414362 -0.478211 3.812120
0.038385 -1.036745 5.773273
0.147917 0.070266 0.890402
-0.242934 0.188459 1.703482
-0.025399 0.114375 0.657359
0.501133 1.005430 4.966901
0.829244 0.785759 2.830376
1.046793 1.058267 4.226501
-0.074150 -1.302891 5.559794
0.613418 0.534915 3.327064
0.500070 -0.507821 4.193340
0.629139 0.712825 3.503287
0.935249 -0.274576 5.656397
0.234160 -0.522830 2.758631
-0.543274 0.289914 3.485394
-0.327916 0.159995 2.287226
0.713495 0.715099 3.536243
0.164511 -0.164402 1.421280
-1.383943 -0.355198 3.357292
0.858226 -0.621959 4.375854
0.187959 -0.580892 3.671844
0.967805 0.045250 7.011013
0.044449 -0.060302 0.936750
0.104038 -1.155779 4.834510
0.933469 0.849804 2.842392
-0.620535 0.510027 5.017465
-0.761398 0.134004 2.650832
-0.426000 0.066825 2.292920
-0.197784 -0.023365 1.514009
1.768577 1.322444 5.361816
0.969100 -0.246238 5.811203
0.472467 -0.475644 4.006572
1.481801 0.373540 5.176210
0.032780 -0.937877 5.236449
0.201713 -0.282118 1.817981
1.986064 -1.643997 4.745804
1.463485 1.154151 4.973478
-0.196831 0.075151 1.821561
1.685423 2.117099 5.112642
-1.235474 0.233626 5.116621
0.372646 0.745224 6.994266
1.493810 0.808630 2.428962
2.927343 1.738331 4.532352
-1.064582 0.210953 2.596476
1.432921 -1.023910 4.611617
-1.564010 -0.411072 3.319912
0.179169 -0.660273 3.557516
1.281812 0.776662 3.782327
0.101087 -0.768321 4.392190
0.970621 0.933549 4.040509
0.150246 1.890789 5.454424
-0.469149 0.253356 2.687630
-0.664036 0.183091 3.143502
0.202809 1.096818 6.954859
-0.451654 0.119352 2.617200
0.117597 -0.098218 1.524150
0.119543 -0.042627 0.816839
2.722135 0.035629 3.731070
-0.000627 0.126658 0.403244
1.591508 1.621437 3.901400
0.185870 -0.515258 2.964058
-0.318144 1.605159 6.178450
-0.236642 0.028343 1.175388
-1.433396 1.224790 6.241048
0.301606 -0.557805 3.135150
-0.421961 -1.354575 4.175880
0.830388 0.841311 3.798152
0.447949 0.519364 3.455690
0.491177 0.495103 3.466896
-0.098695 -0.060684 0.770258
-0.092270 -1.397990 5.657898
0.846708 -1.271787 5.559379
0.147736 0.026788 0.920589
0.386898 1.383654 5.201500
-2.511092 0.523233 6.385904
-1.368415 0.203103 5.457397
1.429709 1.380244 4.654060
0.852338 -0.193118 6.771961
1.269118 1.907336 3.761230
-0.562358 -2.089744 4.164343
0.314247 0.215715 2.041024
0.135604 -0.040615 0.136821
1.050743 -0.837658 4.486219
-0.448856 0.175644 2.149297
0.149273 -0.704279 3.827045
-0.759502 0.295174 5.832498
0.062371 -0.348152 2.069005
1.612614 1.886430 3.621951
-0.650460 0.420283 5.324478
-1.070597 0.421871 3.918844
-1.111243 1.396352 5.207661
1.576482 1.788357 3.771817
0.112528 0.100991 0.796538
0.078691 -0.346647 1.919742
0.186825 -0.488848 2.996574
0.154391 -0.193526 1.338585
0.363561 0.476603 2.707236
-0.436915 0.079049 2.132711
0.403752 0.790330 5.060134
0.497662 0.722785 3.488865
-0.855236 0.509698 3.940977
0.026685 -0.810439 3.047800
0.090174 2.146297 5.603677
0.352827 0.382280 2.281239
0.028607 -0.138131 0.750179
1.276387 -2.010383 6.213035
1.772548 1.725685 3.752047
0.058269 0.061760 1.413350
-0.340365 -1.632531 4.763222
0.170651 -0.693781 4.185169
-0.993335 1.736828 5.047430
0.300098 -0.480830 3.430824
0.087512 -0.855911 4.885490
0.697087 0.785992 3.696376
-0.489866 -1.703527 3.108807
0.653753 1.607515 6.714184
0.452595 0.778929 4.984874
1.132553 0.982851 2.885106
1.404465 -0.989100 4.592844
-0.546332 0.807578 6.371440
0.267007 1.521150 7.247352
1.037205 -2.191743 3.942929
0.432129 0.528495 2.938572
-0.657886 0.227165 3.204924
-0.693450 0.294308 3.354858
-2.244561 0.543448 6.215228
0.000736 -0.113156 0.682610
0.001682 0.109712 0.880657
-1.650879 0.337778 5.519525
0.616782 0.546752 2.743556
0.218565 -0.475446 3.126100
1.356559 -0.653389 4.350287
-1.950146 1.265377 4.698339
-1.330640 1.325034 4.257214
-0.285575 0.084777 2.103380
0.508090 0.540959 3.692842
-0.564692 0.451345 4.507231
0.038356 0.165576 1.479703
0.199726 1.555002 3.507071
0.237900 -0.528959 2.801229
1.148651 0.994903 2.880924
-1.345366 0.346541 5.313324
-0.452044 -1.747237 5.375442
-0.067992 1.762833 5.028423
-1.370077 0.471103 5.833506
0.054056 0.217241 1.398478
0.936133 -2.379285 5.708771
1.414427 1.392518 4.620722
0.108293 -0.888811 4.959513
-0.655291 0.488141 5.113321
1.553154 0.401519 5.187887
0.629524 -0.680789 5.040031
2.096999 1.388732 5.030285
-2.620207 0.184266 5.930065
0.222927 -0.576209 3.638011
0.403758 -0.534149 3.850951
2.517371 0.067778 3.811461
0.695919 0.550604 2.759187
1.199855 -0.346794 3.299224
-0.919056 -0.041269 3.370995
0.926059 -2.130221 5.707293
1.078098 0.994734 4.222809
2.385443 1.359016 3.166135
0.623125 -0.544797 4.646248
0.680682 -0.713494 5.254640
-0.037733 0.122315 0.983953
0.939583 2.532775 4.872098
0.049530 -0.911997 4.956586
-0.354084 -1.599042 5.415097
-0.150548 0.124292 1.628073
0.107009 0.072585 0.433088
2.426346 2.053327 6.172505
1.436538 -0.108753 4.944348
-0.217956 -2.140994 6.504111
-0.621201 0.201739 2.869209
-1.205403 0.312587 5.126982
0.606536 1.263562 3.749888
2.436756 1.458840 6.052671
0.108427 0.179755 1.086601
0.601937 -1.578478 3.899003
-0.712774 0.599456 4.864498
0.019955 -0.904778 3.124041
-2.121613 0.204744 5.756692
0.899742 -1.889263 6.524331
1.916163 1.579159 5.621645
-0.554856 0.801917 5.745847
0.188446 -0.597754 3.353093
2.832138 0.338273 3.898910
-1.445320 1.313040 6.259655
2.017714 1.056576 3.503822
2.944823 2.464643 5.520070
-0.077018 -0.018148 0.940647
-0.612564 0.167593 2.935209
-0.590676 0.188540 2.715579
-0.129343 -0.047053 0.798018
0.708744 -0.413402 4.904326
0.110169 -0.199259 1.989041
1.577643 -1.132030 4.632087
-1.113883 0.260313 4.727070
0.087848 2.014044 5.528911
0.048385 -0.991350 5.369313
-0.446450 0.074890 2.357634
0.766310 -0.190435 7.378766
2.314003 1.546517 4.974386
-0.838028 0.263578 3.906044
0.051618 -1.037090 5.175724
-0.365113 -2.071279 4.829133
1.480272 0.805625 2.448660
0.041433 0.101406 0.695141
-1.171861 0.710501 4.206081
0.080855 0.238516 1.476341
0.470959 0.573804 3.215278
0.068848 -0.342068 2.233232
-0.483570 0.093117 2.318467
0.802549 -0.392445 4.911686
-1.103285 -1.363104 4.751966
0.475448 0.678513 3.866755
0.079452 -0.081175 0.669386
0.532454 1.933848 5.207234
-1.102535 1.762326 3.418739
0.253002 0.387731 2.196407
0.137136 -0.036608 0.146401
-0.590907 0.427530 3.998357
-0.655482 0.292551 3.178457
1.874850 -0.395600 3.180837
0.124036 -0.041624 0.885397
-0.018055 -1.248458 3.257874
0.645670 -0.671789 5.189379
0.477579 0.474259 2.739842
0.603048 -0.632932 4.791008
0.050126 0.122947 0.206382
0.427377 0.804285 6.017520
1.214179 -0.346037 3.294443
-1.626263 0.540061 5.416639
0.205939 0.185286 1.994220
0.554186 0.580844 3.567763
1.825477 0.918777 3.630399
0.380313 0.403642 2.423648
0.700378 -0.480509 4.860351
1.255568 0.809345 3.787566
0.367926 1.102035 3.573680
-0.346706 -1.625367 5.421340
-0.211403 1.440926 4.463693
2.067726 3.348315 5.746506
1.916931 1.575937 5.634469
2.090238 1.391786 5.692291
1.120757 1.029279 4.298950
-0.009688 0.143481 1.162296
0.155367 0.764889 7.358592
1.121722 1.134594 4.290787
0.621331 1.806057 6.748656
0.283959 0.290504 2.483165
2.710084 2.291602 5.470554
0.581870 -0.691653 2.507650
-1.078983 -1.625240 3.824153
-0.010614 -0.035781 1.182590
-0.839846 0.267793 3.874005
1.492773 0.485015 3.927804
0.639156 2.140466 4.244252
0.287421 0.292589 2.494921
-1.404462 0.475174 3.967084
0.609782 -2.641344 3.636543
1.251117 0.366708 6.365036
0.536524 0.478880 3.285051
1.149028 -0.367719 5.838523
1.361830 0.277838 5.153689
1.360899 -0.394022 5.915886
0.378343 1.642817 6.636479
0.364339 -0.565830 3.641784
0.145970 -0.140678 1.719057
0.746783 -0.901023 5.342724
-0.277937 1.260789 4.448473
-0.568372 0.287471 2.902004
-0.706087 1.408062 3.257380
0.445595 0.497268 3.183261
0.519572 0.665024 3.819053
-0.750284 0.138681 2.647218
0.105874 -0.719481 2.985951
1.247948 -1.048673 4.663690
-0.601572 0.424951 3.963403
0.544228 0.633528 3.407280
0.535948 0.620302 3.575780
-0.839513 -1.669237 3.984643
0.437511 0.403600 2.624907
-0.834823 0.270950 3.743397
-1.663551 -0.841264 5.530269
-0.167211 0.100995 1.001976
0.074505 -0.118354 0.181439
-0.919723 1.110736 5.125211
0.233586 1.717177 6.729549
1.914137 1.732111 5.063207
1.024780 0.986874 4.134049
-1.418963 1.615693 4.343928
0.153870 -0.747571 4.446168
0.786079 -0.402752 5.117742
0.292337 -0.430423 2.769626
0.515020 0.753431 4.477022
-0.093782 0.046154 0.717320
-2.245157 0.289037 3.938769
0.441714 0.486051 3.166300
0.764079 0.769930 3.838249
-2.015919 0.755667 3.817470
-0.039804 -0.121040 0.289315
1.574607 1.726444 4.871456
0.429789 0.764463 5.194690
1.205693 -0.175838 4.982480
0.406728 -1.063686 3.788516
0.361594 0.403418 2.359225
-1.441646 0.097625 5.849386
0.116165 0.061627 0.723093
0.946879 -0.275968 5.666857
-0.980719 0.958737 5.170285
0.059005 -1.054071 4.769236
0.361673 1.637082 6.426898
-0.698099 -1.423069 4.044136
0.927461 -0.283271 4.981503
-1.208294 -0.118504 2.765073
1.088095 0.744132 3.831514
0.494630 0.609826 3.397292
0.078256 -0.358542 2.323836
-0.602542 0.293713 3.047395
-0.552888 0.390206 4.097902
0.049809 0.053240 1.375372
-0.887481 0.193602 3.816672
0.662303 -0.619464 4.825946
-0.128831 -0.042855 1.295563
0.067223 -0.910204 5.146792
-0.095952 -0.082206 0.953677
-2.372292 0.847156 3.639420
1.338451 1.447936 4.130955
-0.650630 0.356937 3.798911
0.103772 0.207084 1.786003
0.379142 0.808128 5.350038
-0.631247 0.418165 4.393175
0.442103 0.553793 3.259513
-0.947190 0.192917 4.073677
0.451824 0.566640 3.736160
-0.507957 1.046141 5.903284
-1.069859 0.986561 5.287923
-1.344512 0.222460 2.552626
0.826232 -1.622532 2.520381
-0.685971 0.413486 5.277938
0.120410 0.209815 1.242059
0.067081 -0.752385 3.006012
2.460464 -0.122896 3.674598
-0.948812 -0.081795 3.411701
-0.295276 0.064827 2.099570
0.138081 -0.642936 3.689565
-0.483177 1.731717 6.119343
-0.558777 0.286192 3.095905
-0.229754 -2.119792 6.473754
0.398940 0.426138 2.738052
-0.533827 0.267677 2.717114
0.193403 -0.207099 1.857805
-0.722097 0.635547 4.912045
0.483274 0.741859 4.472598
1.027344 -0.203711 4.995037
-1.555084 -0.174317 4.573480
-1.093868 0.220872 4.737002
-0.158699 -1.550536 5.828027
0.778497 -0.582263 4.349400
-0.396336 0.962323 4.339086
-0.647690 0.225890 3.331506
0.145911 1.898550 5.459225
0.793833 -1.047407 5.451087
-0.450642 0.242755 2.555432
0.093908 -0.089062 0.719749
1.700540 0.195374 5.301482
-1.271541 0.466558 3.930924
-1.468750 0.073958 5.874647
1.126298 -0.005413 6.218347
-1.870941 -1.114221 5.604577
-1.403631 -0.191438 2.787232
0.020464 0.105438 0.657712
-1.372274 0.176163 5.536684
0.578974 1.623159 4.011988
1.651003 2.661601 3.395447
1.247233 -1.659551 5.865880
0.387109 0.697251 6.031560
-1.872609 -0.150874 6.878649
-0.025506 0.112843 0.529876
-0.505965 -0.990502 4.476670
0.657109 -0.576173 4.319615
0.076874 -0.089843 0.665375
-0.587749 0.359611 4.139803
0.454059 0.779648 4.482951
1.886854 0.254345 5.365175
2.267261 1.085659 5.144357
0.521554 0.810718 4.440500
0.275910 -0.577885 3.473677
-0.156780 0.066989 1.678383
0.093797 -0.782774 4.560933
-0.941176 1.601546 5.056533
0.251867 1.630433 5.320851
0.371901 -0.572235 3.487841
-0.599434 0.300681 3.003944
0.499739 0.981163 5.067243
0.594142 1.575031 3.981799
-0.068851 0.130545 1.068792
-1.434280 -0.764973 4.562192
2.328507 0.902605 3.095888
-0.622984 0.520415 3.093123
2.426552 -0.973141 3.941096
0.386577 -0.498234 3.372011
-1.715559 -0.065219 6.339608
0.149945 0.006480 0.070621
-0.740934 -1.491307 4.027418
1.790743 2.066000 3.267010
-0.135992 0.028115 0.069282
-0.718294 0.973552 3.275723
0.777571 -1.103230 5.474572
-0.131584 0.146919 1.394093
-0.522401 -1.725754 4.175993
0.217115 0.346595 1.899485
-1.546604 -0.158150 4.538009
0.748690 -0.669124 2.443572
0.035926 0.135708 0.071743
0.063282 0.059924 0.829834
0.386774 0.998817 3.566980
0.441311 -0.489225 3.644016
0.684974 0.695398 3.480568
-0.647619 0.435201 5.291255
1.187850 -0.538698 6.070149
-0.784005 0.719638 4.942735
0.136703 -1.104934 7.040995
-0.907034 0.539405 3.937575
-1.084935 0.250806 4.501510
0.040256 -0.045838 0.988920
-1.987009 -0.249190 2.700713
1.936484 0.270028 5.381745
1.291951 -0.340038 3.296810
-0.851797 0.268276 3.911666
0.266994 1.980341 6.426377
0.116890 0.122563 1.681375
1.165235 -0.358356 5.831878
-1.676413 0.335793 6.973326
0.417894 -1.091977 3.800086
-0.033444 0.010918 1.015288
-1.593624 0.222295 2.468828
0.912058 0.889678 3.945710
-1.573775 0.231506 2.459058
0.068703 -0.114436 0.342819
0.851861 -1.272551 5.588556
0.164970 -0.786832 4.252517
-2.047021 1.052118 6.569864
-1.206929 1.538948 5.244010
0.064123 -0.966677 4.704330
-0.605346 0.439341 4.159773
-0.688374 0.363134 5.486291
0.559214 1.188877 3.697990
-0.635647 -2.000515 4.140873
0.102532 -0.214267 2.045153
0.516848 0.683020 7.101159
1.353445 -0.679422 4.346489
-0.512183 0.224628 3.008317
0.652686 -2.384142 3.765684
2.404620 2.627499 5.770295
2.472967 2.571047 5.886677
-1.560957 -0.320363 6.218227
0.301628 0.425927 2.666269
-1.953394 -0.460917 3.226336
0.182463 -1.085749 7.162695
-0.179133 -1.339822 5.471738
1.285540 1.961111 3.771515
-0.459844 -1.955229 5.243148
-0.086635 2.222393 5.573476
1.298248 0.478482 6.398456
-0.006646 -0.079477 0.792136
0.484713 1.038247 5.062377
0.089630 -0.145356 0.914087
0.166309 1.827284 6.868469
0.234408 2.150619 6.602359
0.172717 -0.176236 1.780001
0.357676 -2.042193 6.240447
0.791679 0.797267 3.892306
0.510192 0.816880 4.652376
-1.239989 0.054534 5.067547
1.068206 -0.111970 5.033713
0.232276 -0.508677 2.664640
0.387866 -1.010799 3.761515
0.512068 0.579320 3.198472
-1.046384 0.237706 4.375305
-0.728279 0.315304 5.683494
0.306459 -0.449158 3.178411
-1.586327 -0.439596 3.310474
0.502923 1.018267 3.651582
0.059397 0.076603 0.763165
-0.216999 0.095073 1.912224
2.757653 0.348031 3.914611
0.159404 -0.437867 2.278615
-0.243298 -1.079106 3.085048
0.644917 -0.694068 5.152749
1.817949 2.090060 3.204730
-1.575477 -0.480392 3.272768
0.472595 0.817010 4.527554
0.502161 0.682751 7.192823
-0.869127 -0.105524 3.428003
-2.479991 -0.928857 4.193069
0.466620 0.910331 4.853789
-1.566383 -0.199558 4.556975
0.591569 -0.526401 4.544703
2.268915 1.000841 5.100305
-2.452517 -0.900686 4.229226
2.367482 1.581195 4.946432
-0.814050 0.397379 3.861757
1.094482 1.059866 4.348519
-0.745835 0.174874 3.592955
0.778258 -1.793229 3.960884
0.107896 -2.630634 5.574912
2.035177 0.422425 5.118654
1.702189 2.818534 3.265637
0.558227 1.223395 3.732269
0.043911 -1.048260 5.811999
0.462989 0.650031 3.478869
-0.054502 -0.128740 0.050852
-0.032699 -0.098551 1.314867
-0.390461 -1.669931 5.404127
0.699457 -0.719348 5.328666
-0.413166 0.071171 2.341167
-1.172748 0.708570 4.194796
0.622270 1.489042 3.891808
0.078891 -0.130569 1.696146
0.900437 2.501144 4.920459
0.123723 -0.065851 0.243712
0.427690 0.904810 3.526369
0.656816 -0.634893 5.047546
0.266317 -0.555242 3.466544
-1.689463 -1.512730 3.879974
0.632553 1.552300 7.409130
-0.173684 -0.032249 1.427873
-0.100042 0.084637 0.200550
-0.008013 -0.110426 0.664008
0.009777 -0.205453 1.678543
-1.281359 0.223529 5.155114
1.696375 0.425418 3.941975
-1.676914 0.985994 6.739567
1.596962 -1.171638 4.643072
0.118986 -0.183042 1.924492
1.013347 -0.208408 4.986560
0.695728 0.641872 2.807243
-0.903544 -1.813638 3.912073
-0.009986 -0.158608 0.861940
0.395219 -1.129156 3.789231
-1.410748 1.350676 4.236275
-0.600080 0.505008 4.848815
0.428150 0.403788 2.998417
-0.051831 0.100324 0.643075
-0.725097 0.223256 3.261479
0.824729 0.761698 2.805246
0.596841 1.533315 3.913423
2.826200 1.772927 4.596476
1.383461 0.114323 5.199387
1.949998 0.261833 3.933485
0.692090 -0.468826 4.715745
-0.884956 -0.295425 3.473233
-1.845570 1.141035 4.613968
-1.065269 0.693468 4.086117
0.590361 1.509721 3.923692
-0.047388 -0.178167 1.264680
0.419829 0.801262 5.294151
0.723269 -0.703160 5.489139
1.265475 1.617589 2.564968
0.904183 -1.915781 5.693388
-1.385384 1.323266 4.231983
-1.859758 0.521061 2.477019
-0.196321 2.086824 4.405729
-0.235318 0.186211 1.645989
1.523410 1.188379 5.062990
-1.620702 0.782487 4.605943
0.097313 -0.010017 1.014773
0.546982 1.946755 4.194577
2.485066 1.720899 6.642005
0.464560 0.655983 3.481932
1.417850 2.645603 3.309261
0.180567 -0.758933 4.341778
0.236262 -0.422645 2.412137
0.217408 -0.484268 3.141347
-0.568733 0.463684 4.301461
0.659487 -0.509593 4.562759
0.116430 -0.704260 4.115651
0.176554 -1.579497 5.069708
-0.047908 0.069645 1.251015
-0.209773 0.175104 1.680712
-0.565782 0.867674 5.774748
-1.479033 0.422175 5.386384
0.244074 0.389839 2.294373
-0.035039 0.044528 0.865931
0.543894 0.465573 3.175960
-2.142286 0.501555 6.029539
0.720091 2.743896 5.007256
-0.634920 0.425070 4.070153
0.828216 -0.366246 5.297100
0.507425 1.455180 5.842287
-0.559561 0.345165 3.595151
-0.222627 0.019070 1.754638
-0.567817 0.362155 3.661367
1.294901 1.118455 4.663989
0.319795 -0.568802 3.420055
-0.206189 -1.011317 7.103928
0.101992 -0.234838 2.104498
2.574721 2.805493 5.877678
0.619070 -0.556895 4.400988
-1.207357 0.202186 4.962094
1.254209 0.056384 5.140180
0.305130 1.293347 3.552823
-0.558973 -1.828460 4.171494
1.318856 2.027268 3.761967
-2.107399 0.209065 5.748050
0.644072 -0.642958 4.801678
-1.515016 0.357443 5.412868
-0.368228 0.057092 1.865639
-0.144148 -0.028395 1.391941
1.585369 0.900388 2.372254
-0.777286 0.299539 5.798578
-0.253221 -1.697023 4.831857
0.156037 0.233301 1.994866
0.378346 -1.036678 3.746855
-0.414147 0.204741 2.126521
1.081950 1.049090 4.372103
-0.322288 0.199721 1.885630
-0.656951 0.328218 3.752061
0.386366 0.463948 2.647329
0.040897 -0.824367 3.082329
0.282992 0.191577 1.791046
0.990099 0.908865 4.114511
-0.910037 1.365473 5.094275
-0.236172 -1.518670 4.799553
1.138893 -1.644265 5.884868
-0.589303 0.212661 3.344456
-1.140486 0.255291 4.716157
0.360776 -0.964876 3.725262
0.121049 -0.082289 1.364176
0.387473 -0.556421 3.777880
0.372760 -0.471826 3.612348
0.079605 2.148663 5.614620
0.633898 -0.547995 4.619947
0.248553 -0.564855 3.102828
-1.155676 1.527856 3.465722
1.912239 -1.528192 4.721252
-1.368061 0.179363 5.544612
-0.658605 0.294603 3.567276
0.177658 0.240821 2.082415
-0.687107 0.162303 2.604528
1.604267 1.206574 5.074494
1.586645 1.784366 3.763902
0.451509 0.818572 4.554600
2.748622 1.677921 6.608008
0.156794 -0.716656 4.293140
1.816081 1.195554 5.086909
0.183510 0.159797 1.875662
0.509923 -0.488051 4.185324
-0.927495 -1.704291 5.551999
-0.654018 0.487565 5.125720
-0.044100 -0.823187 4.126189
0.033619 -0.048675 1.302521
-0.078006 -0.920531 3.089666
0.527584 0.729193 4.343352
0.058491 -0.106955 0.500874
0.009035 -0.129118 0.477764
-0.660420 0.603072 3.157192
1.734244 0.400073 3.955003
-0.754206 -1.482192 4.011974
0.139625 0.227952 1.338099
-2.399508 0.265194 3.886038
-1.629858 -0.226371 4.584227
0.230149 -0.449115 2.468266
1.449310 1.977874 3.692828
0.014844 -0.250148 1.373500
-0.021922 0.064004 1.152628
-1.383068 0.482768 3.940269
0.150912 0.013277 1.143126
0.240141 1.626346 6.795010
1.004747 0.916049 2.841837
1.433554 2.343559 3.687177
0.968230 0.866673 2.840945
0.477444 0.607701 3.436297
1.536719 0.469449 3.933913
-0.725831 1.512802 3.214821
-0.023369 -0.174339 0.944466
0.111627 1.872690 3.405556
0.844882 -0.318408 5.371321
-1.495967 -0.132202 6.052802
0.217388 -0.290494 2.055155
-1.709882 0.391195 4.014396
0.116548 -0.087836 0.099106
0.177182 -0.451030 2.924809
1.053020 1.065540 4.299289
0.756654 2.281217 5.079092
1.761755 2.052844 3.334184
-2.154933 0.835995 3.721437
-0.175224 -0.988630 4.122394
0.211417 -0.441704 2.419191
0.241440 -0.537699 2.862611
0.100189 -0.106786 0.214855
-0.504609 0.104145 2.558312
1.158164 0.000162 5.103954
-0.533996 0.561416 4.174924
1.273637 0.780657 3.774105
-0.004110 1.957626 6.354319
-1.175622 2.063447 4.938465
-1.499595 1.256326 5.806826
0.861949 0.862319 4.023068
0.993099 0.030266 6.987852
0.119247 0.228487 1.865662
0.074314 -0.143327 0.855165
2.066393 0.882571 3.442220
2.205529 -0.388300 6.072603
0.112997 -0.322510 1.746465
1.327745 1.071858 4.695013
-0.691945 0.210669 3.523123
0.597015 1.465468 3.896589
0.192253 -0.530258 3.110417
-0.378988 -1.239517 3.108982
-2.408080 0.853859 3.630803
-0.957049 0.203231 4.276526
0.037228 -0.221480 1.877402
0.082651 -0.098061 0.486739
-0.639118 0.206503 2.962458
1.881859 0.971059 3.604849
0.456851 0.424988 2.710108
1.199562 1.075134 4.465226
1.548200 1.197121 5.032740
-0.917687 1.410410 5.085403
0.421073 0.518890 2.894479
0.457486 0.875539 4.720179
1.061784 0.981056 4.293267
1.384378 1.475463 4.070925
-1.089180 1.014377 5.320295
0.215873 -0.328331 2.369146
0.733460 -0.524962 6.165738
-0.659818 0.231000 3.201490
-0.897735 0.240497 3.833749
-0.545691 0.210213 3.127583
1.398020 2.454286 3.592434
-0.093633 -0.105311 0.175752
0.407961 0.421404 2.554614
-0.495459 0.101314 2.577355
0.929051 0.752253 3.770686
0.199368 0.264234 2.197034
-0.550487 0.380247 4.021858
0.101882 -0.382523 2.508834
-0.562339 0.414371 4.006640
0.453668 -1.230833 3.811243
-0.918694 1.145207 5.124462
-0.582790 0.230900 3.437585
0.459614 0.699611 4.002074
1.429962 -1.162563 6.808934
-0.444572 -1.426558 4.172654
0.501993 0.761654 4.221689
0.277602 -0.471962 2.682918
0.406574 -1.137034 3.820509
0.361313 0.290185 2.246430
-0.567355 0.243917 2.683106
-0.152314 0.154945 1.434807
-0.583149 0.212886 3.328775
2.048224 3.288987 5.734602
-0.582277 0.437294 4.584419
0.595241 1.794931 4.099803
-0.694515 0.260804 3.186249
0.168090 0.047967 1.344905
0.093781 0.251956 1.546990
2.799089 0.781351 4.844667
1.902606 1.756004 5.056792
2.485265 1.725744 4.827145
0.675472 1.544621 7.005877
2.287161 -0.043806 3.772450
0.618312 1.800314 6.738365
-0.633715 0.327445 3.381291
2.026567 -1.105050 4.463597
0.626795 -0.528830 4.516906
-1.941072 0.232354 2.267707
-0.438500 -1.441546 3.116257
0.995382 -0.236922 5.987688
-0.365591 0.044986 1.962075
1.962934 -1.420950 4.674429
0.379097 0.728702 5.934298
0.169001 -1.411540 4.970793
-0.977277 0.235236 4.398031
2.096673 -0.365486 6.060528
0.434238 0.512505 3.245319
-0.191453 0.005791 1.638119
0.661375 0.618357 2.785740
0.240849 -0.371530 2.501447
-1.078607 0.225264 4.696250
0.578595 0.660997 7.305914
0.089106 0.010046 0.945064
0.564793 -0.571823 4.478683
-0.653797 0.295185 3.629153
-0.755639 -2.010324 4.631558
-0.605032 0.310815 3.010446
-0.720262 1.410804 3.237426
-0.633147 0.432990 5.144301
0.242968 -2.266343 5.408226
-1.492841 0.242926 6.712785
1.474383 1.523236 4.761333
1.777173 1.631396 4.954741
0.163331 0.051481 1.012734
-0.657774 0.539802 5.341372
-1.931603 0.339197 4.007402
0.149781 -0.239838 2.133696
-0.068011 -0.100195 1.071617
-1.286201 0.324581 5.275161
0.046848 -0.211912 1.112530
0.115995 0.082699 0.173974
0.836870 0.770058 2.806369
-1.048171 0.235238 4.378369
1.604021 0.456395 3.937675
-0.421519 -1.356839 3.109844
-1.682305 0.230460 2.409070
1.788091 1.191343 5.081046
0.083733 0.087153 0.626338
-0.490638 0.751102 7.113572
-1.295468 1.206160 4.230050
0.687019 -0.717826 5.401485
0.918243 0.862358 2.840935
-0.893542 -0.218818 3.458459
-0.786177 0.092646 3.373127
0.342249 1.624535 7.344786
0.149630 -0.332649 1.807832
0.600283 -0.756882 2.532151
0.339967 0.456532 2.822160
0.079298 0.238158 1.595041
0.024281 -0.265806 1.558461
-0.279664 0.148246 1.497028
0.550528 1.725112 6.492375
-0.232275 -1.003682 4.140078
-0.663711 0.628575 3.152671
1.220106 -1.036904 4.641498
0.856481 -2.053329 6.137421
0.643130 -1.945721 3.876087
-1.359878 0.207019 5.442425
0.810079 0.870359 3.922503
-0.629124 0.449934 4.782078
0.263947 -0.816562 3.695439
-1.068488 0.199969 4.625588
2.004489 1.119383 5.105506
0.017585 1.699096 5.068037
0.243650 1.372546 5.120088
0.908232 -0.306491 4.937439
0.184839 -0.251975 1.647441
-0.643122 0.494638 4.791006
-0.702059 1.977632 3.092792
-0.021097 -0.133933 0.745700
-0.061458 -1.804743 3.471376
-0.805918 -2.257419 4.942399
0.466690 0.821574 4.460898
0.007853 -0.240550 1.306462
-0.257204 0.096471 1.314139
1.533236 -1.091576 4.626451
-2.313132 0.660938 6.427158
0.529150 0.901606 6.382503
0.500062 1.763395 7.471418
-0.026053 0.122451 1.084090
-0.603500 0.676058 5.846988
2.038407 1.820492 5.146846
-0.117533 0.071993 0.746080
0.428222 0.425223 2.700453
0.080560 1.602869 5.097854
-0.960377 0.261366 4.080239
0.428634 2.298387 4.445121
-2.242816 0.154845 2.077521
-0.018290 0.136659 0.892611
-0.314008 -2.145108 4.800017
0.596790 -0.499839 4.255886
1.257224 1.097922 4.661819
1.829422 0.345965 3.954226
-0.008086 0.033401 0.957743
-0.865799 0.180066 3.932379
-0.972242 1.720980 5.042311
-0.909284 1.321169 5.106434
2.055413 1.852149 5.149754
-1.486609 0.820518 4.473269
1.809258 1.661743 5.001984
0.499920 0.642343 3.633735
0.095797 0.017604 0.857799
0.709424 2.193952 5.128215
-0.071910 -1.345071 5.592192
-0.130747 -0.021743 0.168913
0.163466 0.070449 1.526691
1.773891 0.386370 3.927497
0.930701 -2.107854 5.717298
0.318625 1.285368 5.142075
0.414232 0.458924 3.074996
0.185723 -0.501385 2.628856
-0.536474 -1.818524 4.709222
-0.097522 0.021011 0.746474
0.588208 -0.520051 6.918772
-0.785673 -1.185750 4.667826
-1.344865 0.446195 5.758713
0.951193 -0.845994 6.406157
0.563967 -0.566342 4.488850
1.517820 -1.021282 4.591582
0.519761 0.617221 3.996045
-0.954248 0.562534 4.001545
1.895456 1.802258 3.585724
-0.589504 0.341539 4.046787
-0.189900 -0.039998 1.375756
-0.571241 0.241509 2.694413
1.567818 1.691429 3.858344
0.101956 -0.013578 0.696837
0.728473 -0.637740 5.905470
0.615322 -0.532324 4.561390
1.896773 1.269052 5.066698
0.105341 -0.025725 1.018355
0.701937 -0.722207 5.238063
-1.194009 0.288753 4.994961
0.658354 -2.165024 3.825718
0.215780 -0.481405 3.209022
-1.204589 0.728086 4.209740
-0.121045 -0.003905 0.528070
0.262505 1.403704 3.550712
-0.415056 0.910562 4.320036
1.319921 0.236552 5.148863
-0.729868 1.139502 3.262149
0.565025 -0.478647 4.271355
0.833952 -0.363565 4.936208
0.449298 0.774116 4.442252
-0.611133 0.372794 3.656178
-0.627089 0.448825 4.929683
-0.398723 -1.421106 5.500484
-0.482837 0.111623 2.634659
0.063152 -0.092092 0.649054
0.887692 0.875492 4.058614
0.196887 -0.499640 3.216620
0.448829 0.615169 3.594978
0.157878 -0.594010 3.672401
0.172778 -0.665970 4.059306
0.645091 -2.031849 3.865618
-0.619469 0.583307 5.457432
1.219757 0.045694 5.122617
0.673743 -0.590043 4.301597
0.008360 0.103134 0.971785
0.865812 1.655136 3.881546
0.012015 -0.255030 1.646497
0.783978 -0.351193 5.287923
-0.063392 -0.112299 0.271546
0.773626 0.762399 3.657390
-0.212226 0.148841 1.865685
-0.944310 0.903538 5.124537
0.390453 0.470889 2.680859
-1.775623 -0.299903 2.752749
2.399080 1.612021 4.919198
-0.091716 -0.039865 1.242999
0.079163 -0.894577 5.069483
0.340008 -0.568355 3.325013
2.499149 1.493813 2.979561
1.076412 -0.158989 6.111000
0.050713 0.006096 1.057171
1.399533 -0.677738 4.339532
0.392161 1.538069 5.239976
-0.689789 1.951223 3.109438
-1.124995 -0.919883 3.650139
-0.111930 -0.091261 0.052673
0.102040 -0.074626 0.501039
0.082423 -0.106092 0.378571
-1.584985 0.355041 5.448580
0.328815 0.446898 2.505197
1.513352 -0.397287 5.955201
-0.750693 -1.476969 4.030076
-0.274540 0.183043 1.683518
-0.980801 -0.589267 3.571646
0.514183 -1.413678 3.870409
0.052083 -0.213933 1.121084
-0.551209 0.282603 3.552207
1.171306 1.199632 4.263682
0.797651 -0.626723 4.375086
-0.502285 -1.482465 5.531680
0.784137 -0.353828 5.289567
-0.329134 0.146881 1.680874
-0.842892 0.224020 3.624403
0.477922 0.859012 4.773062
0.720444 0.638698 2.805778
-0.866402 -0.031154 3.402887
1.405292 1.592008 2.468327
1.050633 -1.513384 5.764262
2.359219 2.013598 6.138139
-1.503939 0.241308 6.812469
0.235084 -2.007130 5.270630
1.661082 -0.030252 4.861333
-0.098570 -0.107618 0.100466
-1.761449 1.454873 6.217826
1.998494 -1.100794 4.482260
-0.331961 -0.860356 4.271761
-0.935452 0.235028 4.273274
2.422441 0.332536 3.946289
0.368812 0.307254 2.625074
0.940946 -0.365930 3.314872
-0.518917 -0.992895 4.451807
-1.098100 1.332707 5.191461
0.444994 -0.475388 3.763374
1.601876 -1.552813 5.029736
0.635148 -0.686066 5.107673
-0.235263 0.013779 1.198173
-0.884275 0.946268 5.077119
0.429768 -0.574593 3.760577
0.066878 -0.793720 3.027630
1.184296 0.015361 5.131957
0.038927 -1.025506 5.603879
0.113691 0.242919 1.364684
0.585232 -0.418167 3.235938
1.906968 -1.070066 4.511983
-0.586866 0.707662 5.993522
-1.490851 0.240532 6.670834
0.505576 1.643711 6.236876
-1.447903 0.212622 5.953257
0.177948 -0.401048 2.388149
-2.084282 0.560237 2.368236
2.464732 1.460776 6.075912
-1.387658 0.226242 2.528688
0.113264 0.030200 0.673673
-0.473998 -1.787201 4.720186
-0.670138 0.646436 3.167043
1.357336 1.292308 4.597963
-1.553798 -0.484075 3.298806
1.146138 -1.680670 5.907367
2.111985 -1.086842 4.429603
-0.814079 0.415294 3.866536
0.552675 0.531680 3.425213
0.517792 0.577548 3.844209
0.526666 0.465000 2.724053
0.883800 -0.603574 4.377045
-2.243963 0.149341 2.076125
-0.645371 0.377385 3.867540
1.198920 0.232054 6.300576
0.031347 0.087791 0.903171
0.449747 0.539144 2.980566
0.139499 -0.239925 2.136827
-0.906121 -0.050335 3.410850
-1.282287 0.359861 5.272451
0.229925 -0.453610 3.118886
-1.806520 0.359431 4.000932
0.190044 0.116538 1.737602
-0.610122 0.454197 4.933703
-0.543352 0.154035 2.921895
-0.721523 0.347803 5.528858
-0.162049 1.609908 4.468993
0.787511 0.750941 3.754947
0.124737 0.149175 1.764464
2.195909 0.052870 3.829679
0.173042 -0.343791 2.560343
-1.746389 0.591359 2.458789
-0.649571 0.752224 3.208254
2.488308 0.887563 5.016867
0.092691 -0.157593 0.969371
-0.350173 0.174421 2.347905
-1.492757 0.364554 5.382227
0.334516 -0.537969 3.154310
-0.373282 0.214002 2.363349
-0.228992 2.567455 5.549094
1.578380 1.815516 3.732716
-0.828013 0.269805 3.713242
0.405284 -0.490052 3.179953
-0.075751 1.774978 5.014547
-1.573880 1.532164 4.187483
1.128947 1.101357 4.266417
1.722058 -0.235759 3.129695
1.781567 0.910333 3.625516
-0.177613 -1.448723 4.782339
-0.270986 -1.509589 5.449087
0.192565 -0.696025 3.729455
-0.147887 1.635842 4.473629
0.434361 0.522384 3.304429
0.474533 0.444041 3.143760
0.056641 -0.230670 1.969708
0.168216 1.824146 6.285579
0.238669 0.253424 1.606932
1.336085 1.399151 4.152489
1.102830 -0.330464 3.297522
-0.856439 -0.209836 3.478019
2.476759 0.333356 3.930884
1.144429 -0.620879 4.369885
0.444599 0.608483 3.632296
0.004208 -0.244424 1.586291
-0.797685 0.207993 3.825667
-2.385670 -0.820859 4.310833
1.038945 0.935183 2.849494
-0.060025 -0.119301 0.174573
0.970689 -0.380573 3.295089
-1.395236 0.468902 5.874645
-1.529916 -0.427740 3.305459
1.142501 0.990019 2.884970
0.078242 -0.134696 0.836355
1.222240 1.448001 2.655782
0.380137 0.724358 5.956767
-0.133876 -0.925488 4.106949
0.577867 0.585485 3.211861
-0.926275 0.238074 4.245510
0.624270 -0.570505 4.464100
-0.864718 0.464314 3.893077
-2.508532 -0.476308 4.491914
0.308950 0.331009 2.008410
1.198983 -0.958649 4.582009
2.801492 1.728951 4.651169
0.098512 -0.822286 4.666184
-0.258104 -0.002897 1.697546
-0.450308 0.822459 4.292989
0.054205 -1.051987 5.917036
1.208574 1.185942 4.409487
0.150784 -0.626154 3.838403
0.186038 -0.181331 1.629707
-1.436602 0.817207 4.428357
0.182253 -0.621346 3.855444
1.810808 0.910114 3.625420
0.798035 -0.335937 5.285230
-0.049339 -0.119611 0.711893
0.795866 -1.170429 2.563983
1.244909 1.491399 4.181866
-0.670671 0.173217 3.248131
0.631075 -0.466829 4.742365
0.887078 -1.546448 5.666165
0.147770 -0.003257 0.314209
0.167395 -0.779942 4.487235
-0.269668 0.087577 1.349246
1.945489 -0.790995 4.221799
0.120101 -0.101019 0.873178
0.459391 0.776032 4.503895
-0.591182 0.451142 4.154530
1.481051 1.546645 4.776008
-1.471906 -0.299770 6.143802
2.824552 0.776421 4.827476
-0.557892 0.410437 4.252379
-0.088881 0.139896 1.038828
0.460129 0.809508 4.651487
0.558852 -0.524052 4.421128
-0.587978 0.175279 3.108786
-0.666988 -1.285494 4.758554
-0.143037 0.043766 1.601165
-1.649415 0.950876 6.651455
0.079351 -1.064666 6.002978
-1.278170 -1.045561 4.405738
0.799163 2.137743 7.205472
0.118655 -0.714468 4.036511
0.066857 -0.088839 0.660120
0.792182 -1.129305 2.550516
0.031265 0.061233 1.336329
0.591280 -0.506471 4.461272
-0.070292 0.100924 0.298551
0.029055 -0.033761 0.950998
0.400326 0.786005 5.633227
1.229790 1.459010 4.209843
0.403538 1.607995 5.242540
1.361547 0.271464 5.149172
0.846175 0.763963 2.831047
0.280494 2.210388 4.600348
-0.022544 -0.082895 0.757543
-0.560094 0.293586 3.119971
-2.517223 0.154084 5.897498
-0.644493 0.480082 5.141308
1.516058 -0.410460 5.960125
1.298439 -1.158861 4.711072
-0.104832 -0.080821 0.185698
0.207645 0.278630 1.621702
1.708624 1.307084 5.304063
-0.223745 -1.356146 5.484539
-1.061539 -0.731671 3.596080
-0.639150 0.554442 5.255816
0.118377 0.051014 0.402121
0.674309 -0.717789 5.209768
-0.010433 -0.000552 1.074165
0.092098 -0.909947 4.660547
0.418652 0.781305 4.769854
0.231740 -0.648519 3.479869
0.239026 -0.525884 2.778661
-0.548770 0.210895 3.170291
-0.871428 0.162604 2.613230
-0.219440 -1.740578 6.073159
0.501660 1.481223 5.912607
-0.308966 -1.552218 5.446027
0.501976 1.054626 5.081788
0.332042 0.412179 2.356198
0.106970 2.462200 5.798551
0.466906 0.489726 3.380311
0.367363 1.702256 6.180654
0.522817 0.620945 4.004781
-0.005389 1.720218 5.068175
1.097355 1.133715 4.251882
-1.129678 0.118008 4.435374
-0.579483 0.410345 4.400070
0.827522 -0.315803 5.410349
-0.423161 -0.901344 4.343084
-0.244713 0.179552 1.597137
-0.524118 0.277564 2.809246
-0.373026 0.046810 2.069480
-1.368160 0.199923 5.575835
0.115700 -0.200127 1.202742
-2.353366 0.150455 5.840851
-1.372644 0.452287 5.829708
-0.575248 0.429974 4.516070
-0.610655 0.303613 3.044732
-0.384964 -1.704160 4.760762
0.529255 1.322611 5.608348
-1.275355 -0.179205 5.193452
-1.481817 -0.113690 6.048443
-0.999735 0.260904 4.427670
1.201526 1.201671 4.461604
1.369099 1.376281 4.598887
1.054854 -0.165250 6.509704
-2.012789 0.253227 5.708061
-1.445606 0.442280 3.963999
0.255617 0.468053 7.041454
-0.014689 -0.106154 1.389637
0.012472 0.091498 0.981522
0.101620 -0.339574 1.848394
-1.223541 0.312516 5.244682
0.001467 0.159182 1.211544
0.123654 -0.460866 2.501082
1.172486 1.852632 3.798448
-0.381112 0.199016 2.017079
-1.188780 0.241152 5.001386
-1.009163 0.253579 4.462670
0.305413 0.438962 2.567870
0.143983 -0.022878 0.059530
-1.901369 0.717201 5.454185
-1.029415 -1.774647 5.533200
0.568260 -0.528939 4.108156
0.637392 -1.968945 3.853936
0.093181 -0.799896 4.526075
-0.166180 -0.010432 1.517128
0.223538 -0.324655 2.173574
-0.050109 2.250407 3.058886
1.103023 -2.319703 3.927132
0.025375 0.087586 0.728570
-0.057636 0.070826 1.291315
-2.486547 0.863908 3.567905
1.257655 1.087366 4.557100
1.568655 -0.681733 4.329753
1.491935 -1.550471 4.931735
1.292231 -0.879415 6.668065
1.467175 -1.415105 4.889197
2.170648 0.138131 3.865527
0.889790 2.254682 7.308492
0.310107 -0.516562 3.528891
-0.227585 0.097019 1.199937
-0.122229 -0.071468 1.114224
0.744608 -0.382260 5.157114
-1.630282 -0.296560 2.798086
0.453502 0.775790 3.486613
2.223508 2.558334 5.632901
1.177336 -0.341459 3.311603
0.175384 1.836732 5.449259
0.385095 1.025223 3.539346
0.516526 0.891021 6.369032
0.195798 -0.602051 3.764630
0.581629 1.679329 4.044056
0.805028 -0.635312 4.379391
0.161464 0.288222 1.602213
-0.910838 0.403315 3.877509
-1.341889 1.322318 4.262987
-0.060101 -1.782923 3.458996
-1.447072 -0.414381 6.178472
0.242312 0.486809 7.095054
1.213333 -0.570789 6.119845
0.535136 0.504545 3.438668
0.117790 -0.139892 1.729323
-1.497764 -0.212140 6.108548
-1.124638 -1.958849 5.453401
-0.798281 0.242520 3.820038
0.634525 -0.612518 4.646455
0.044247 -0.103919 1.549813
-0.431426 0.216972 2.634136
-0.284301 -0.818205 4.265665
-0.645299 0.148995 2.625759
0.147064 0.004982 1.091685
0.386802 1.525974 5.237554
-1.270287 0.332758 5.279786
1.790337 -0.233562 3.085771
-0.777309 1.663342 3.179036
-0.768650 1.650067 3.184486
1.636254 1.916263 4.980071
0.701260 -0.451637 4.990183
-0.581490 0.443461 4.127713
1.239357 1.518039 2.631170
1.140125 -0.211127 6.451908
1.087380 -2.292163 3.926947
0.248794 -0.561412 3.133776
0.449584 0.559252 3.674951
0.647269 -0.484900 4.498415
1.058736 -0.340223 3.315329
0.076357 0.041704 0.848837
-0.918669 -1.836416 3.891993
2.525671 0.334935 3.940793
1.415527 -1.017503 4.584882
-0.116530 -0.017161 0.488357
-0.686146 0.175660 3.399973
0.912963 0.748881 3.766135
0.070642 0.048336 1.380855
-1.714339 0.370366 4.003762
-0.447963 1.238420 5.987887
2.695585 1.212272 5.128535
0.041999 -0.949954 5.353704
0.879974 0.857585 4.038341
0.603002 -0.573535 4.419518
-1.656368 0.498585 2.522148
-0.569976 0.339115 3.042966
0.360302 0.275192 2.283926
0.094787 -0.792007 4.501320
-0.639103 0.492421 3.094942
-0.398306 -1.279219 4.172006
1.485790 0.367696 5.176001
-0.327207 0.097474 1.593999
-1.104183 0.194917 4.632030
0.654877 -2.176566 3.823801
0.449483 0.788481 4.453530
0.520674 0.989315 3.605566
-0.064702 -0.108554 0.766314
-0.471143 0.229550 2.396323
1.325691 0.819078 3.763967
-0.675427 0.624096 4.865448
-0.142569 -0.019681 0.808167
1.533270 1.178155 5.005355
-1.550287 -0.411290 3.303302
0.005698 -0.219893 1.653965
-0.814455 0.253758 6.002531
-0.758960 1.588337 3.194044
-1.704154 -0.365813 2.803562
-0.927100 1.279673 3.387729
-0.789767 0.259750 3.768030
-0.915495 0.273873 4.094736
1.200774 -0.931266 4.550159
-0.647728 0.589061 5.594998
-0.244882 0.144487 1.394544
-0.047284 -0.147710 0.934250
-1.012824 1.419726 3.417846
0.731001 -0.860436 5.308919
-0.941526 0.190737 4.168529
1.137106 2.016649 7.048743
0.146976 -0.431054 2.734222
0.640789 -0.487745 4.760082
0.294039 1.638321 6.918381
-1.974076 0.762481 5.450211
0.191100 -0.578127 3.269802
-0.062295 -0.098972 0.661933
-0.801699 0.011991 3.395757
-0.829692 0.451349 3.854028
0.123257 -0.838673 4.674838
0.744466 -0.388803 3.265381
2.569167 1.053881 5.099121
1.921813 2.234080 2.887513
-0.912530 -1.831324 3.908918
0.449471 1.146556 5.097838
1.258601 0.803533 3.808409
-1.245484 0.347114 5.352260
1.826048 1.207990 5.077075
0.039244 -0.106375 0.616660
0.940606 -0.273829 5.698594
2.327977 1.279282 4.894398
-0.113414 -1.322694 4.799323
-0.457627 0.079980 2.293531
-1.278708 -0.264354 3.359625
1.777597 -0.236031 3.095662
0.116759 -0.722761 4.072104
0.195744 0.194487 2.017131
0.956508 -1.936415 6.534438
-0.625051 0.450645 5.001610
-0.911135 1.428461 5.085424
-1.917067 0.374739 5.733869
1.566968 -1.024977 4.580768
0.160560 -0.190600 1.395042
-2.454140 0.521569 6.331148
-0.675197 0.704401 3.173984
0.127721 -0.162115 1.835144
0.004011 -0.970338 3.142255
0.477162 1.040770 5.037662
0.074282 0.089503 0.659052
0.590721 -0.483494 4.360884
-0.748153 0.133037 2.615009
0.098211 -0.149746 0.958906
0.506899 0.602276 3.962141
-0.024471 0.118237 0.694466
0.376066 0.784176 5.611490
0.172137 -0.174166 1.763975
1.349953 2.143450 3.847957
2.103967 1.413251 5.037033
1.621469 0.860276 3.710681
1.077855 -0.350987 5.815937
-0.592095 0.458145 4.829528
0.963445 -0.755272 4.430831
-0.897938 0.179542 3.971777
-0.628914 0.182339 3.113525
-0.008706 0.109343 1.272695
0.200526 0.091613 1.301693
-0.748921 1.043405 3.267862
0.815886 -1.181113 5.538973
-0.526520 1.007177 5.858523
0.056384 -1.027495 5.157346
0.073394 -0.300581 1.628268
0.127012 -1.104574 6.000587
-0.590263 0.172603 2.759600
0.736112 0.675560 2.819167
-0.085267 -0.031837 0.887866
-0.466339 0.166947 2.196697
0.025391 0.110796 0.629549
0.170130 -0.586418 3.694207
-0.312701 0.076062 1.502614
0.108623 -0.089738 0.353876
0.490950 0.842549 4.495423
0.113309 -0.017235 0.699817
0.595628 0.546731 3.409699
0.102128 2.421251 5.774513
-0.797161 0.273024 3.619464
1.164582 1.166730 4.421137
-0.120061 0.139071 1.451568
-0.751104 0.262923 3.378976
-1.833430 -0.452677 2.788637
2.327250 -0.053987 3.746527
0.729711 -0.839451 5.325139
0.883019 -0.763853 6.594621
1.827859 1.189659 5.103692
-0.629635 0.622653 5.734796
0.479103 0.501468 3.477969
-0.647909 0.322845 3.394703
-1.469057 0.347308 7.004057
-0.344191 0.064070 1.714756
-0.856128 -0.213824 3.476021
0.358666 0.288918 2.497471
0.047221 0.135010 1.500784
0.139315 -0.442818 2.698446
-0.923123 0.202216 4.193028
0.786125 -0.710091 5.936382
-0.504291 0.177361 2.585751
-1.520949 -0.251340 2.796335
0.492456 0.596882 3.465656
-0.201112 -0.993706 4.121348
0.563323 0.941331 6.639535
-0.352847 -1.635040 5.419228
1.689549 -1.230389 4.660674
-1.195754 0.446797 3.919700
0.420128 -1.148620 3.828309
-0.141626 -0.063309 1.066093
2.025148 1.271931 5.022518
1.616032 2.018299 3.394429
-0.436624 -1.753024 4.738249
1.746128 1.348662 5.359656
-1.229963 -1.849182 5.490504
-1.345690 0.356694 5.278462
-0.849686 0.426300 3.879888
0.118017 1.943576 5.495564
0.172014 -0.694234 4.031969
-1.895446 -0.475152 3.239035
-1.809749 -0.753904 3.106832
1.565465 0.070663 6.767079
-0.597936 0.455337 4.860361
0.674372 -0.456165 4.906677
0.193080 0.351490 2.116799
0.761649 -2.723051 3.658034
2.477767 1.466397 3.020822
-0.663026 0.430737 5.144368
-0.284563 -1.380018 5.500488
2.027760 1.070114 3.519888
-1.753320 0.213041 2.380258
0.019885 -0.140754 0.189545
0.185363 -0.766686 4.273491
-0.333588 1.127136 4.409299
1.346933 1.272216 4.567967
-1.496421 -0.178653 6.090312
-0.035961 -0.165718 1.351521
-1.345101 -0.336929 5.265389
0.420785 0.953645 3.530161
-0.955182 -0.424266 3.515785
-0.633363 0.422676 4.038275
0.702603 -0.458838 4.767345
0.434242 0.564025 3.527581
-0.612391 0.493484 4.797525
-0.028716 -2.126099 3.553170
0.625765 -0.600435 4.877605
1.932513 -1.407139 4.677575
-0.398183 0.057352 2.059897
0.975883 0.962857 2.813167
-0.847901 -0.012766 3.385754
0.066343 -0.059868 1.348100
0.763576 0.714663 3.622998
-0.252239 0.192040 1.720537
0.293982 -0.520395 2.914518
0.450293 -0.492272 3.677694
-0.522980 0.129333 2.427158
0.111782 -0.883326 4.932313
-1.466696 1.462916 6.302593
0.128389 -0.418018 2.642201
-0.218644 1.995716 4.889853
-0.025761 -1.189408 5.366194
0.582623 -1.481576 3.908941
0.025203 -0.974625 5.357312
1.696795 1.296898 5.256588
0.071686 -0.926856 4.706442
0.187856 0.077599 1.210611
0.876077 -0.762271 6.596493
-1.018004 -0.622511 3.596693
1.272465 1.109614 4.618059
-0.333528 1.093564 4.371370
0.070625 -0.923254 5.016006
0.172748 -0.578023 3.647874
2.070311 0.281091 5.426889
-0.498802 -2.190688 5.054198
0.293226 0.273528 2.431104
0.646912 -2.149500 3.833932
1.883326 -1.385077 4.677426
0.514600 -0.559167 4.008806
-1.505970 0.867973 4.464364
2.287677 0.988595 5.098291
0.086291 -0.059243 0.822813
0.871437 0.909887 3.944123
0.118599 -0.860225 4.683180
0.609210 -0.735503 2.514964
2.491409 1.289600 4.811020
0.333642 0.353175 2.752349
-1.471368 0.523346 6.207753
-0.436229 0.767326 4.271793
0.506741 0.816530 4.452889
0.222514 1.724773 5.388828
1.113625 0.722316 3.830511
-1.545066 -0.430209 3.323372
-1.839189 -0.601454 6.632504
2.286161 0.349561 3.953549
0.020872 -0.030343 1.221633
0.891352 -0.266753 5.597861
1.005594 0.926789 4.106983
-0.739708 0.332744 5.606118
-0.937522 -1.874990 3.867807
-1.029641 0.686016 4.099698
-0.435632 -1.798163 5.349560
0.636586 -1.692094 3.896806
0.100320 -1.247973 4.865446
0.735872 -0.458092 6.380381
-0.735930 0.308114 5.720493
1.381301 0.015505 6.513526
0.098994 -0.040161 1.199735
2.124003 -0.363334 6.071156
0.387020 0.489655 2.752690
0.492858 2.029129 4.291171
0.245136 0.167615 1.498364
-0.899870 0.178456 2.644528
0.114462 0.007564 0.660843
1.551524 1.769098 4.870189
1.470449 1.518368 4.758446
-0.532372 -1.828207 5.347953
0.535344 0.596180 3.870676
-1.154323 0.260755 4.870696
0.728980 -0.466478 6.373061
0.079834 0.002955 0.811203
2.102094 1.869044 5.172814
0.486614 0.663247 3.762302
-0.241753 1.851509 4.891682
-0.057849 -1.230067 5.444884
0.357129 -0.536086 3.246496
0.339173 0.256181 2.287159
1.656338 2.193950 3.007621
-0.182735 -1.002471 4.153678
2.854500 1.800925 4.544500
1.701466 -0.248782 3.144094
-0.616493 0.308543 3.156783
-0.636246 0.449373 5.008196
-0.695876 0.382071 5.391139
1.191931 0.787195 3.816351
-2.011386 0.308958 4.003474
1.187571 -0.225758 6.524506
-1.295655 0.191720 5.198896
-0.178892 -0.811453 4.217493
-0.151449 0.105254 0.966861
-0.287482 0.161377 2.130905
-1.919956 -0.431672 2.749744
-0.289916 2.329481 4.654824
2.548013 1.074273 5.106827
0.037025 0.002382 0.976185
0.340278 -0.503267 3.135563
0.476313 2.053907 5.231885
-0.914886 0.184322 4.002970
-0.043889 0.100122 0.670521
0.103855 -1.107581 6.705616
-0.598395 0.509514 4.772526
0.065103 0.148484 0.876824
-1.176277 1.549373 3.480014
-0.597807 0.503655 4.760832
0.883446 0.904530 4.067001
1.524840 1.190748 5.066303
0.168146 0.199089 1.979172
0.023520 -0.977806 5.459564
0.473139 0.766216 4.838527
0.507494 1.299456 5.616079
-0.110534 1.800833 4.993148
0.544533 0.636553 3.913938
0.502913 1.094928 5.273507
-0.121825 0.008251 0.303957
0.172023 0.033343 1.199137
0.140822 -0.788615 4.628090
0.259724 -0.596828 3.213670
-0.597942 0.148158 2.613827
0.078317 -0.930936 4.994534
0.322083 1.299700 5.114750
0.115424 -0.022449 0.959839
-1.580145 0.482556 5.392419
1.823039 1.319934 5.392813
0.255156 -0.633800 3.504179
0.126975 -0.421200 2.211298
0.272107 0.406285 6.974815
2.114490 0.887414 3.375347
-0.384920 -1.195689 4.158358
0.129418 -0.127582 1.017428
0.041884 -0.210728 1.108145
-0.430136 -1.742231 5.381884
0.581369 0.572162 7.263584
0.082034 0.240378 1.608820
1.128358 -0.431068 7.002713
0.602258 -1.607420 6.357449
0.946916 -2.063680 3.953876
0.300710 -0.530426 3.476679
0.522877 0.455890 3.189375
-1.607227 -0.216154 4.579698
-0.147751 -0.015592 0.000529
-0.670481 0.202174 3.452010
0.194155 -0.527466 3.072934
1.240873 1.661632 4.122476
-0.579804 0.734409 6.114231
0.161062 0.284072 2.067918
-0.954930 1.122645 5.147834
0.184422 1.580325 7.126828
-0.170342 -1.335635 5.448444
0.048144 0.213085 1.427992
0.236575 0.367683 2.392761
1.130945 1.156688 4.238425
0.778332 -0.718732 5.874625
0.447233 0.598851 3.512829
-1.023719 -0.129349 3.368042
0.454799 -0.557065 3.714051
0.514159 0.657537 4.159188
1.072451 0.635349 2.654225
1.486813 1.129571 2.904623
2.025057 0.347170 3.941087
-0.120565 -0.930359 3.079600
0.047926 -1.031225 5.813418
-1.257887 -0.058104 5.141836
0.025166 -0.263838 1.455040
0.025497 -0.979264 5.365571
-1.407966 1.671023 3.464654
0.712844 -0.462948 4.807179
0.510709 1.651875 6.228501
0.878830 0.922986 3.978328
2.300485 0.332248 3.943520
1.206429 0.767086 3.780528
-0.189209 0.038275 0.987751
0.617597 0.619545 3.312850
1.320337 0.213855 5.148466
0.500123 1.909519 5.209839
0.846162 -0.313849 5.384414
-0.432472 -0.885378 4.345242
-0.743746 0.321664 5.639208
-1.331039 0.361621 5.271264
-1.120266 0.213866 2.614898
0.689407 -0.433763 4.975637
0.821670 0.871730 3.954594
-0.658433 0.364134 3.742069
-0.315299 1.190482 4.414815
-1.314520 -0.027632 4.496802
0.136642 -0.795156 4.295632
0.030378 -0.240196 1.270926
0.504833 0.770852 4.608342
1.807460 1.419745 5.438407
0.449001 0.412074 3.037369
-0.249877 0.190397 1.763129
0.511486 0.902442 4.872660
-1.365097 0.174249 5.509136
0.900757 -1.987286 3.944207
1.497201 1.624816 4.798471
